ply
format ascii 1.0
comment PCL generated
element vertex 525
property float x
property float y
property float z
property uchar red
property uchar green
property uchar blue
property float nx
property float ny
property float nz
property float curvature
element camera 1
property float view_px
property float view_py
property float view_pz
property float x_axisx
property float x_axisy
property float x_axisz
property float y_axisx
property float y_axisy
property float y_axisz
property float z_axisx
property float z_axisy
property float z_axisz
property float focal
property float scalex
property float scaley
property float centerx
property float centery
property int viewportx
property int viewporty
property float k1
property float k2
end_header
0.15303716 -0.1712627 -0.056027044 0 250 0 1.1618609 -8.3612623 96.823402 0
0.38277397 -0.41837949 -0.06642288 0 250 0 1.7684901 -9.59021 111.63226 0
0.59958661 -0.6410135 -0.055133924 0 250 0 2.2494676 -9.3518562 114.75134 0
0.79026455 -0.85668421 -0.04171199 0 250 0 2.0808129 -9.7883558 116.2799 0
0.92104912 -0.99233305 -0.022596791 0 250 0 2.7874131 -11.131589 116.99691 0
0.9969185 -1.0683165 -0.012477626 0 250 0 3.1380157 -12.193835 116.59284 0
1.0264204 -1.0925875 -0.01414782 0 250 0 3.6294456 -11.963731 116.12284 0
1.0444005 -1.1147579 -0.0041850554 0 250 0 3.7359211 -11.069005 115.21131 0
1.0180484 -1.0866653 0.0074885259 0 250 0 3.2286277 -10.55221 114.15584 0
0.95524049 -1.0309178 0.036302853 0 250 0 1.9734321 -10.712436 112.62711 0
0.94933474 -1.0207965 0.044594128 0 250 0 2.3870091 -11.327607 111.54559 0
0.89897227 -0.99560422 0.054437332 0 250 0 1.5150948 -10.942957 110.97014 0
0.8264426 -0.90903777 0.049345765 0 250 0 1.9398048 -9.3455296 111.74478 0
0.74968046 -0.80115533 0.052804232 0 250 0 2.0315356 -8.5743799 113.06875 0
0.70599675 -0.77833873 0.074454397 0 250 0 1.6350358 -9.5498667 114.92784 0
0.65041506 -0.70478046 0.099954978 0 250 0 1.2412392 -9.762249 117.18797 0
0.55633676 -0.62878805 0.096717119 0 250 0 1.5284263 -10.185085 118.97372 0
0.51964766 -0.58172023 0.082793079 0 250 0 2.7025924 -9.9882793 120.18256 0
0.42703947 -0.5102995 0.085968941 0 250 0 1.853794 -9.7491207 120.02443 0
0.3148573 -0.41129386 0.10075224 0 250 0 0.11227328 -9.9598465 118.81205 0
0.27360809 -0.38662729 0.091615133 0 250 0 0.70608509 -10.337493 118.0491 0
0.19570707 -0.31256482 0.072799578 0 250 0 1.863278 -9.4828568 117.22767 0
0.086517356 -0.19739701 0.056179743 0 250 0 2.2587996 -9.0032492 118.10526 0
-0.019832339 -0.077406295 0.063893832 0 250 0 2.1013 -8.9589634 119.40484 0
-0.047119271 -0.023464847 0.065907799 0 250 0 1.8910508 -8.5571547 120.22987 0
-0.11377986 0.028747033 0.063868716 0 250 0 1.1730632 -10.036237 121.58714 0
-0.21527477 0.15435372 0.03462328 0 250 0 3.0212443 -10.094664 121.68112 0
-0.27826336 0.19251077 0.023866838 0 250 0 3.4186931 -9.9464121 120.77696 0
-0.36404884 0.29353723 0.013558223 0 250 0 2.5915878 -11.274962 119.51048 0
-0.48828322 0.36683878 0.019596646 0 250 0 2.0942903 -11.838689 117.12555 0
-0.60224438 0.45147613 0.0053664837 0 250 0 3.5114744 -11.742834 115.50361 0
-0.63240659 0.51063472 -0.018258175 0 250 0 4.2600737 -10.576638 115.97884 0
-0.70642197 0.59146851 -0.044921864 0 250 0 3.4450316 -11.799819 117.0681 0
-0.81717777 0.73398721 -0.0117376 0 250 0 2.5082581 -10.416888 118.0266 0
-0.86819947 0.72526079 -0.013490906 0 250 0 1.6395571 -10.520539 119.65859 0
-0.93170106 0.84130448 -0.035057005 0 250 0 4.3281703 -10.511195 120.27882 0
-1.0621507 0.93790817 -0.063679703 0 250 0 3.1974664 -11.046714 119.55003 0
-1.1025224 0.96958464 -0.060255796 0 250 0 2.1727479 -11.101964 119.49188 0
-1.1938732 1.0147254 -0.049972661 0 250 0 1.3732971 -11.399539 116.79224 0
-1.304342 1.1082428 -0.079737522 0 250 0 2.6163619 -11.882961 114.78097 0
-1.4336563 1.2066683 -0.089909792 0 250 0 2.2370992 -10.08934 114.05941 0
-1.46135 1.2609231 -0.10645708 0 250 0 2.1756828 -10.494534 115.13574 0
-1.5567826 1.3530476 -0.088103265 0 250 0 1.6694865 -9.9119635 116.31921 0
-1.6540701 1.4725 -0.066521846 0 250 0 0.27616903 -10.745091 119.37571 0
-1.6879036 1.5314888 -0.094233789 0 250 0 1.4897257 -10.835896 120.03376 0
-1.7654811 1.6299393 -0.12497826 0 250 0 2.1661325 -12.31046 120.09432 0
-1.8909168 1.7260964 -0.12942526 0 250 0 1.6162783 -12.484025 118.32648 0
-1.9428116 1.7626333 -0.12220703 0 250 0 0.66648662 -11.431361 116.23499 0
-2.0179222 1.8198639 -0.14553191 0 250 0 1.8649583 -11.263548 114.54092 0
-2.1297939 1.9230783 -0.15706213 0 250 0 2.9775038 -10.045531 115.31529 0
-2.2102633 2.027483 -0.17294042 0 250 0 3.209846 -10.714543 117.50861 0
-2.237458 2.0682037 -0.16303886 0 250 0 2.7548537 -10.456344 119.02789 0
-2.2629392 2.1727726 -0.1657957 0 250 0 2.4105017 -10.731772 122.92821 0
-2.3646209 2.2733288 -0.17080855 0 250 0 2.5271347 -10.133879 123.55298 0
-2.3902988 2.3137579 -0.19503383 0 250 0 2.9070549 -10.603931 123.5369 0
-2.4670901 2.3778136 -0.20355667 0 250 0 1.9022496 -10.214669 121.62199 0
-2.5716708 2.4628267 -0.1805049 0 250 0 2.0506496 -9.0259933 119.36497 0
-2.6796763 2.5500948 -0.19762886 0 250 0 2.9622207 -8.7666416 117.36687 0
-2.7002428 2.5814228 -0.22016625 0 250 0 3.8203135 -8.659791 116.87833 0
-2.7516127 2.6820338 -0.23789048 0 250 0 2.8107224 -9.8661642 118.92968 0
-2.8433778 2.7536607 -0.22879183 0 250 0 -0.58333224 -11.491319 120.87842 0
-2.866595 2.7820477 -0.22737312 0 250 0 -1.3315588 -11.206563 122.71114 0
-2.9436636 2.8691921 -0.23538393 0 250 0 0.11124158 -10.717465 123.21672 0
-3.0306532 2.9895854 -0.2627745 0 250 0 0.83139467 -11.812114 122.07632 0
-3.1397715 3.0288701 -0.25569925 0 250 0 0.73807371 -11.419067 119.11031 0
-3.1859491 3.0620313 -0.25995341 0 250 0 1.0361553 -10.412355 116.45911 0
-3.2585964 3.1484945 -0.30288562 0 250 0 3.7206264 -9.484479 115.16915 0
-3.3912385 3.270298 -0.3303068 0 250 0 3.6357303 -9.3118019 117.44758 0
-3.4255493 3.3075993 -0.33664644 0 250 0 3.7276444 -10.708574 120.80976 0
-3.4787338 3.4053538 -0.36108407 0 250 0 2.57161 -11.099662 124.06459 0
-3.5773065 3.5130363 -0.3753081 0 250 0 2.8750803 -9.5263414 123.39559 0
-3.6035268 3.5564382 -0.42094463 0 250 0 2.3649027 -10.994662 123.48168 0
-3.6749885 3.6632102 -0.44711155 0 250 0 3.0463979 -10.95944 121.56541 0
-3.7841904 3.7116458 -0.45384395 0 250 0 1.5952675 -10.719769 118.92255 0
-3.8717761 3.8016081 -0.49666828 0 250 0 2.9173381 -9.8329906 118.21772 0
-3.9033558 3.8638139 -0.53070748 0 250 0 3.468401 -10.26174 120.00752 0
-3.9710715 3.9541574 -0.55339134 0 250 0 3.528445 -11.73917 123.28396 0
-4.065239 4.05932 -0.55296594 0 250 0 3.1560786 -12.580661 125.36845 0
-4.0688734 4.091763 -0.56277162 0 250 0 1.5586755 -12.369155 124.89209 0
-4.1604943 4.2035308 -0.58872503 0 250 0 2.6806657 -11.872898 124.1547 0
-4.2713041 4.2945719 -0.61221135 0 250 0 2.614996 -11.82112 121.80411 0
-4.3613729 4.3271456 -0.6110757 0 250 0 1.9168621 -11.98695 120.69678 0
-4.4041672 4.3569045 -0.61289692 0 250 0 1.8600937 -11.736021 119.68699 0
-4.4682336 4.4089327 -0.63694954 0 250 0 3.9947362 -11.009315 119.46577 0
-4.5908713 4.4871736 -0.65439868 0 250 0 3.85799 -10.361237 123.13086 0
-4.626565 4.5242944 -0.64820093 0 250 0 3.3656712 -11.931489 127.91698 0
-4.7000289 4.6006899 -0.63201046 0 250 0 1.833149 -11.900489 134.27782 0
-4.8320537 4.6681218 -0.62619644 0 250 0 -0.10548273 -11.385239 138.77673 0
-4.8529835 4.6793914 -0.65353781 0 250 0 0.16530952 -11.04809 141.88402 0
-4.9393196 4.7219286 -0.66679096 0 250 0 -0.29404166 -11.412734 144.22484 0
-5.0589623 4.7989607 -0.65983111 0 250 0 -0.85090697 -12.485815 146.62216 0
-5.1770935 4.8212848 -0.6635415 0 250 0 -1.1097755 -12.338187 147.66881 0
-5.1998816 4.8183842 -0.69428062 0 250 0 1.5095421 -11.08276 148.32381 0
-5.3406429 4.8457479 -0.70889962 0 250 0 2.2081368 -10.460354 152.69675 0
-5.4700532 4.8771348 -0.72080827 0 250 0 1.5005 -12.070053 159.19272 0
-5.5263762 4.8846498 -0.71816665 0 250 0 1.0411168 -11.023892 163.91675 0
-5.6120749 4.8757634 -0.72661555 0 250 0 0.29885504 -10.587846 167.82405 0
-5.7694073 4.9018917 -0.75081396 0 250 0 1.5853763 -10.808417 170.83243 0
-5.9061427 4.9054599 -0.75274938 0 250 0 1.6063904 -10.875805 170.87315 0
-5.9282556 4.8608613 -0.73535144 0 250 0 1.0512396 -11.512897 171.56175 0
-6.0413985 4.8463264 -0.7436614 0 250 0 1.8981271 -9.5719595 172.0827 0
-6.2069502 4.7670636 -0.76713216 0 250 0 2.4076939 -9.5970211 175.50896 0
-6.2601171 4.7535148 -0.76850802 0 250 0 2.451699 -10.409192 -126.54879 0
-6.3921976 4.7158284 -0.74421942 0 250 0 1.5315343 -9.7445278 -164.41536 0
-6.5435143 4.6349902 -0.73690063 0 250 0 -0.10310947 -8.5974827 -167.51677 0
-6.5761995 4.591826 -0.7589637 0 250 0 0.72894979 -9.1421537 -165.29709 0
-6.6732984 4.5322022 -0.76279408 0 250 0 1.2239498 -9.4953318 -165.41385 0
-6.7168121 4.4351745 -0.74798203 0 250 0 0.77196765 -11.299899 -165.37848 0
-6.9033294 4.3592224 -0.7433567 0 250 0 1.7452444 -9.3157434 -166.50389 0
-6.9833913 4.3181705 -0.77222878 0 250 0 3.0670033 -9.9540052 -165.55492 0
-7.126945 4.246645 -0.77522433 0 250 0 1.8793155 -12.301213 -162.57057 0
-7.2406926 4.1571426 -0.75099546 0 250 0 1.1843377 -13.830887 -158.34853 0
-7.3324385 4.1398234 -0.72745615 0 250 0 0.4231692 -11.909513 -156.76306 0
-7.4831462 4.0893655 -0.71439177 0 250 0 1.9136592 -11.117807 -154.3732 0
-7.6473532 4.0126586 -0.67961037 0 250 0 2.2780123 -10.329566 -155.76476 0
-7.71382 3.996016 -0.62346995 0 250 0 1.1596674 -8.842885 -156.83693 0
-7.7937136 3.9404769 -0.60039741 0 250 0 1.5046973 -7.7476292 -158.99586 0
-7.9267716 3.8583968 -0.59225547 0 250 0 2.4306326 -7.5170383 -158.1897 0
-8.0688372 3.7857556 -0.57300103 0 250 0 3.3490987 -8.0107918 -156.24826 0
-8.1551695 3.7810206 -0.54833502 0 250 0 2.1165121 -10.005946 -153.51924 0
-8.2673597 3.7412503 -0.52132487 0 250 0 1.6507792 -10.55092 -151.53456 0
-8.4357471 3.6779888 -0.51905918 0 250 0 2.0460372 -8.9444933 -151.5712 0
-8.4991674 3.616894 -0.54892182 0 250 0 1.3836931 -9.8822279 -151.84212 0
-8.6419659 3.5187707 -0.54987085 0 250 0 2.1487427 -10.636862 -152.88406 0
-8.7818823 3.3958974 -0.54066736 0 250 0 0.74965382 -13.641606 -154.10562 0
-8.9117861 3.2679212 -0.52863145 0 250 0 2.138021 -11.259224 -155.14229 0
-8.9928913 3.222079 -0.5235604 0 250 0 2.8974488 -11.336055 -153.99165 0
-9.0947914 3.1237533 -0.5007109 0 250 0 3.4220023 -11.795612 -152.21471 0
-9.2295294 3.0242572 -0.46985176 0 250 0 3.8004899 -11.722593 -149.95122 0
-9.2643175 2.9680812 -0.44759473 0 250 0 2.4902475 -10.514156 -150.70975 0
-9.3550739 2.8901286 -0.4430798 0 250 0 3.2457051 -9.7764082 -149.58391 0
-9.4581366 2.7639244 -0.44638723 0 250 0 3.2925601 -9.4723129 -150.76857 0
-9.483264 2.7048759 -0.42238802 0 250 0 2.3454864 -9.3688354 -151.25739 0
-9.551116 2.60605 -0.38820142 0 250 0 2.6794727 -8.1182585 -153.21858 0
-9.6419535 2.4842892 -0.38155931 0 250 0 3.611712 -7.6500978 -154.04289 0
-9.7432346 2.369137 -0.38578376 0 250 0 3.9253471 -8.4271975 -152.53366 0
-9.8040915 2.3389394 -0.35533375 0 250 0 4.4752336 -9.8717003 -149.91916 0
-9.9045601 2.27982 -0.33467749 0 250 0 4.0202408 -11.55865 -145.81363 0
-10.01528 2.1857073 -0.32084623 0 250 0 3.0672827 -10.592051 -145.45741 0
-10.056125 2.159307 -0.32737872 0 250 0 3.529669 -10.852097 -144.87787 0
-10.136869 2.0732958 -0.32466859 0 250 0 4.4120202 -10.695161 -145.48409 0
-10.24884 1.9459615 -0.29634452 0 250 0 3.363524 -11.118485 -145.36079 0
-10.325307 1.8300762 -0.27962106 0 250 0 3.2407885 -11.174137 -145.13817 0
-10.36499 1.7880956 -0.2777299 0 250 0 4.1654477 -11.004976 -144.22363 0
-10.449845 1.6759893 -0.27935764 0 250 0 4.2587633 -10.517978 -140.76054 0
-10.545476 1.5180134 -0.2729829 0 250 0 3.4935572 -11.787194 -134.74312 0
-10.623542 1.4686799 -0.24789396 0 250 0 2.051147 -11.31844 -129.26091 0
-10.679519 1.3571521 -0.22757505 0 250 0 1.0568731 -10.973796 -123.8087 0
-10.780679 1.2013453 -0.21935137 0 250 0 2.4603076 -11.645608 -119.17137 0
-10.842606 1.0640622 -0.20096816 0 250 0 1.3314383 -13.407424 -117.49304 0
-10.880308 1.0295924 -0.18093611 0 250 0 0.57460898 -13.537014 -116.46943 0
-10.897363 0.92120397 -0.16061814 0 250 0 0.83911574 -12.556372 -117.20361 0
-10.9255 0.7697444 -0.17965613 0 250 0 2.0923283 -13.044468 -115.48046 0
-10.941261 0.70956618 -0.19169295 0 250 0 2.6890905 -13.064692 -112.78848 0
-10.950122 0.57810175 -0.17505832 0 250 0 2.823118 -11.87142 -107.81175 0
-10.962486 0.40909284 -0.16724357 0 250 0 2.6187046 -11.245294 -101.44363 0
-10.965739 0.23869886 -0.18167612 0 250 0 2.3488107 -11.518015 -97.127548 0
-10.960977 0.16489998 -0.19943959 0 250 0 2.8256092 -11.832912 -94.688477 0
-10.941731 0.020981882 -0.20054145 0 250 0 1.9107063 -11.803543 -94.119942 0
-10.920597 -0.15978149 -0.18072286 0 250 0 -0.37722626 -11.677661 -93.4263 0
-10.897829 -0.235681 -0.18967582 0 250 0 0.12926993 -11.577987 -94.472687 0
-10.870131 -0.37856656 -0.21568947 0 250 0 2.111062 -11.145514 -94.794266 0
-10.849999 -0.57968307 -0.24392577 0 250 0 3.1474535 -11.289886 -92.283272 0
-10.832888 -0.66799021 -0.23127724 0 250 0 2.5408263 -11.132082 -89.213417 0
-10.835474 -0.8154164 -0.2212133 0 250 0 1.6053286 -11.105266 -84.839966 0
-10.791556 -0.9874236 -0.22531362 0 250 0 2.3002203 -10.61358 -84.020401 0
-10.741192 -1.1449481 -0.25388077 0 250 0 2.1978984 -12.100664 -83.567375 0
-10.693264 -1.2045699 -0.24249494 0 250 0 1.8933724 -11.462237 -84.891785 0
-10.679782 -1.3240911 -0.2311665 0 250 0 -0.05560362 -12.831579 -85.777481 0
-10.584123 -1.475159 -0.21878767 0 250 0 -0.47578394 -11.851641 -89.334404 0
-10.553913 -1.5405632 -0.23657732 0 250 0 0.66926324 -12.055897 -89.578339 0
-10.526191 -1.6700305 -0.25253344 0 250 0 1.7589566 -13.043027 -88.441528 0
-10.492502 -1.8378478 -0.24425265 0 250 0 1.4282643 -12.30647 -87.91864 0
-10.472324 -1.8971251 -0.23398516 0 250 0 1.9401532 -11.453501 -86.556465 0
-10.433008 -2.0244772 -0.23083484 0 250 0 2.7198131 -9.3743114 -88.797722 0
-10.411747 -2.2118692 -0.25673437 0 250 0 2.1282825 -11.931679 -89.626938 0
-10.367265 -2.3759525 -0.22363232 0 250 0 0.75984305 -11.550382 -92.77462 0
-10.35392 -2.427757 -0.17377856 0 250 0 -1.8111548 -10.741474 -94.933952 0
-10.329682 -2.5202653 -0.158263 0 250 0 -2.0656252 -11.261064 -98.474251 0
-10.307559 -2.6737862 -0.16899444 0 250 0 0.33977878 -9.584631 -100.89207 0
-10.327228 -2.7428486 -0.18492468 0 250 0 2.2890007 -10.218735 -101.34483 0
-10.328621 -2.8692799 -0.17684302 0 250 0 2.1089056 -11.836713 -101.32009 0
-10.337182 -3.0307064 -0.15243506 0 250 0 0.83723593 -12.356357 -99.767403 0
-10.320907 -3.1846766 -0.1635672 0 250 0 0.12596455 -12.440834 -99.214973 0
-10.318029 -3.2475247 -0.18604432 0 250 0 1.194847 -12.012836 -98.502266 0
-10.303373 -3.3792939 -0.18379147 0 250 0 0.81659412 -12.861081 -100.6284 0
-10.265637 -3.5467815 -0.1755088 0 250 0 0.51885104 -13.463227 -104.4575 0
-10.267982 -3.6139562 -0.17859012 0 250 0 1.6091602 -12.024487 -108.04585 0
-10.241939 -3.7510183 -0.21833208 0 250 0 2.8889685 -11.089077 -109.36919 0
-10.231458 -3.9601305 -0.22503833 0 250 0 2.5329077 -10.754698 -106.87485 0
-10.203408 -4.0354872 -0.2061922 0 250 0 1.6302832 -11.453891 -105.14915 0
-10.205959 -4.1793008 -0.19203937 0 250 0 1.4216458 -11.138342 -99.607681 0
-10.183593 -4.3773999 -0.20833792 0 250 0 3.7271965 -10.261034 -97.592499 0
-10.143133 -4.5592837 -0.23132689 0 250 0 3.537662 -10.886507 -97.862282 0
-10.128538 -4.6340675 -0.20505044 0 250 0 1.6343907 -10.627687 -99.806686 0
-10.080311 -4.7620687 -0.19249992 0 250 0 1.3611645 -9.938426 -102.65308 0
-10.039191 -4.9369583 -0.21766159 0 250 0 3.300904 -9.5673552 -104.62936 0
-10.019429 -5.0214214 -0.23315965 0 250 0 3.6813703 -9.3601046 -104.28226 0
-9.9906292 -5.1693497 -0.22681966 0 250 0 3.0808177 -10.363048 -102.05349 0
-9.9635696 -5.3501534 -0.20326963 0 250 0 2.9409292 -11.207168 -98.295418 0
-9.9419012 -5.5113382 -0.21412665 0 250 0 1.9301736 -11.660501 -96.31575 0
-9.9156437 -5.5701742 -0.24757029 0 250 0 2.814239 -11.125811 -95.449081 0
-9.8872337 -5.6986203 -0.26501727 0 250 0 1.4498526 -10.721387 -96.401901 0
-9.8539181 -5.8665133 -0.24807392 0 250 0 0.11609161 -9.6979456 -99.566536 0
-9.8199244 -5.9317327 -0.25721976 0 250 0 0.11923704 -8.5750818 -103.54829 0
-9.7916365 -6.060493 -0.29461914 0 250 0 1.7856923 -7.6037431 -106.16619 0
-9.759182 -6.2715783 -0.3023302 0 250 0 1.8712561 -6.6441984 -105.25709 0
-9.7541399 -6.4424806 -0.27934256 0 250 0 0.92255282 -8.048008 -102.42388 0
-9.7209177 -6.4976945 -0.26816425 0 250 0 1.8401822 -8.4664326 -99.222504 0
-9.7150574 -6.6297822 -0.27797666 0 250 0 3.2616141 -8.7406282 -98.274902 0
-9.6984901 -6.8145647 -0.31125206 0 250 0 2.3864896 -9.7812033 -98.291664 0
-9.6397676 -6.899745 -0.29573208 0 250 0 1.2801042 -10.015427 -99.517075 0
-9.6452684 -7.0284357 -0.27582052 0 250 0 0.79054117 -10.164911 -102.62592 0
-9.6174698 -7.1929183 -0.28145927 0 250 0 2.2481611 -9.9957743 -107.00687 0
-9.5990267 -7.2579427 -0.31484967 0 250 0 3.8211145 -10.439842 -107.43983 0
-9.622818 -7.4036312 -0.33979762 0 250 0 5.534575 -11.041295 -104.93233 0
-9.6279783 -7.5966129 -0.30994534 0 250 0 3.2596819 -10.812567 -101.89128 0
-9.6391516 -7.7347221 -0.31096587 0 250 0 2.5012977 -11.502507 -98.191124 0
-9.6344299 -7.7956815 -0.33957973 0 250 0 3.7233059 -11.929742 -96.539055 0
-9.6309299 -7.9335775 -0.34536335 0 250 0 3.3542738 -11.355982 -97.596947 0
-9.6207714 -8.1103172 -0.32951272 0 250 0 1.3389702 -10.387435 -100.10361 0
-9.5915241 -8.1754065 -0.31570727 0 250 0 0.84824699 -10.74963 -101.79349 0
-9.5819178 -8.2961121 -0.32504189 0 250 0 1.6614723 -9.8026199 -103.15958 0
-9.5972185 -8.4613848 -0.35869136 0 250 0 2.4798841 -9.909133 -102.26173 0
-9.6263762 -8.5344582 -0.37287369 0 250 0 2.4581118 -10.139412 -100.32485 0
-9.645998 -8.6566772 -0.36273268 0 250 0 1.4879779 -10.594722 -98.348282 0
-9.6924257 -8.8011122 -0.34616324 0 250 0 0.32467741 -10.948709 -97.171883 0
-9.7392111 -8.9270306 -0.37333259 0 250 0 1.7076708 -10.906868 -97.887901 0
-9.7314959 -8.9947577 -0.38608661 0 250 0 1.4019406 -10.843588 -99.487892 0
-9.7295971 -9.120018 -0.4008528 0 250 0 0.800946 -10.063007 -102.00125 0
-9.7404566 -9.2844038 -0.38397044 0 250 0 0.63113993 -8.9801245 -104.03352 0
-9.7299252 -9.3381109 -0.3890177 0 250 0 0.43215969 -9.7983246 -106.85381 0
-9.7184477 -9.437007 -0.41135797 0 250 0 1.9975599 -10.411786 -107.70534 0
-9.7219133 -9.6060915 -0.43037283 0 250 0 3.2580211 -9.0576305 -106.13737 0
-9.7302933 -9.7645817 -0.42368498 0 250 0 2.9618661 -9.7136345 -103.05615 0
-9.7565928 -9.8306084 -0.40553597 0 250 0 2.3287513 -10.750183 -100.15321 0
-9.7572851 -9.937212 -0.39582631 0 250 0 2.0327249 -11.623514 -96.61673 0
-9.7735186 -10.093865 -0.4191879 0 250 0 3.331327 -11.246121 -95.296982 0
-9.7665405 -10.182291 -0.42944199 0 250 0 2.5008273 -10.887173 -95.198807 0
-9.7638826 -10.323538 -0.43613037 0 250 0 0.47333634 -11.433717 -96.189308 0
-9.7439423 -10.493258 -0.41379535 0 250 0 -0.35842952 -10.975212 -99.115311 0
-9.7300014 -10.562772 -0.41248575 0 250 0 0.31813118 -11.082245 -100.95044 0
-9.7355213 -10.698236 -0.43911231 0 250 0 2.1419179 -10.476354 -101.93828 0
-9.7419367 -10.90033 -0.46164805 0 250 0 2.1402876 -11.119155 -100.82945 0
-9.7941589 -11.086718 -0.4426184 0 250 0 1.5681564 -13.425894 -97.784027 0
-9.7825222 -11.135725 -0.41173792 0 250 0 0.30165958 -15.016739 -94.483368 0
-9.7795715 -11.249627 -0.4040091 0 250 0 0.60801119 -15.310191 -94.331581 0
-9.794404 -11.412203 -0.43521824 0 250 0 0.8426559 -15.474003 -93.963699 0
-9.7665567 -11.492423 -0.4256393 0 250 0 -0.0011145615 -14.630016 -95.629356 0
-9.7700367 -11.637262 -0.40718475 0 250 0 -1.2554756 -14.374731 -96.841255 0
-9.7492647 -11.799983 -0.41255662 0 250 0 -0.26994526 -14.659821 -100.79426 0
-9.7250938 -11.963568 -0.4459362 0 250 0 1.945389 -13.983567 -102.32794 0
-9.715786 -12.031026 -0.4627445 0 250 0 2.06144 -13.544973 -101.32584 0
-9.7026329 -12.160809 -0.45772868 0 250 0 1.8599675 -14.134793 -98.572884 0
-9.7110262 -12.320382 -0.44838202 0 250 0 1.2557383 -12.998391 -95.416252 0
-9.6891909 -12.409467 -0.4430863 0 250 0 0.97246307 -11.579728 -95.158386 0
-9.6803017 -12.548497 -0.48190773 0 250 0 1.7806306 -12.620999 -93.945549 0
-9.63904 -12.737909 -0.49070337 0 250 0 1.2978482 -12.785989 -94.795586 0
-9.6224604 -12.822916 -0.4667803 0 250 0 -0.076537788 -11.810009 -95.853859 0
-9.5990429 -12.966894 -0.46918166 0 250 0 1.039284 -11.466372 -98.594261 0
-9.5765152 -13.161552 -0.50232631 0 250 0 3.3651137 -10.86497 -100.22406 0
-9.5517693 -13.336123 -0.50717181 0 250 0 2.7047186 -10.977624 -98.860283 0
-9.5351143 -13.408745 -0.49445236 0 250 0 1.7028304 -11.326623 -98.332977 0
-9.5264854 -13.547295 -0.48347682 0 250 0 0.51852185 -10.695031 -94.18219 0
-9.4997749 -13.743755 -0.49536893 0 250 0 1.4771057 -10.191729 -92.480583 0
-9.4719114 -13.826139 -0.51374817 0 250 0 1.3845352 -11.18737 -91.583229 0
-9.4093542 -13.972508 -0.49969718 0 250 0 -0.93607712 -10.304867 -94.257118 0
-9.3793659 -14.159712 -0.48267093 0 250 0 -0.65098578 -9.9197187 -96.461594 0
-9.3478241 -14.334991 -0.50235337 0 250 0 0.96586221 -9.5784235 -99.021439 0
-9.3350906 -14.414491 -0.51974326 0 250 0 1.7226253 -9.6944284 -99.335724 0
-9.3079615 -14.557808 -0.50474751 0 250 0 1.0729026 -10.7395 -97.997551 0
-9.3069715 -14.738289 -0.48437148 0 250 0 1.2957976 -10.391895 -95.534485 0
-9.2894945 -14.821066 -0.48629561 0 250 0 1.0576528 -11.303447 -94.714485 0
-9.2744961 -14.96107 -0.52565253 0 250 0 1.4835572 -12.58358 -93.364845 0
-9.2443523 -15.164208 -0.51875252 0 250 0 1.0768273 -11.82479 -94.390076 0
-9.2385139 -15.247374 -0.4919056 0 250 0 0.16964419 -10.722321 -96.631119 0
-9.216033 -15.384781 -0.49044821 0 250 0 -0.086578138 -10.274054 -99.335281 0
-9.1968517 -15.600462 -0.51878494 0 250 0 1.2000185 -9.2280979 -99.188301 0
-9.1793327 -15.771529 -0.52655399 0 250 0 0.65805179 -10.968668 -94.722466 0
-9.1812401 -15.86549 -0.52255446 0 250 0 -0.24798061 -11.515149 -89.308899 0
-9.1590376 -15.982272 -0.5247311 0 250 0 -2.8360558 -11.457033 -83.017647 0
-9.1334352 -16.180614 -0.56039834 0 250 0 -1.8446796 -10.41285 -79.37513 0
-9.1043634 -16.259884 -0.55990642 0 250 0 -2.414844 -10.969429 -78.077629 0
-9.0514851 -16.389517 -0.54598719 0 250 0 -2.6040869 -11.092821 -77.505173 0
-8.9816294 -16.559748 -0.53790861 0 250 0 -2.3378749 -11.151449 -75.740623 0
-8.9573355 -16.645374 -0.56571484 0 250 0 -0.25080192 -11.364566 -74.060738 0
-8.8835793 -16.796934 -0.58481413 0 250 0 1.4245101 -11.447826 -71.548439 0
-8.7852964 -16.953505 -0.58856517 0 250 0 1.7997731 -13.326583 -65.849846 0
-8.7177382 -17.102737 -0.5812161 0 250 0 0.50745153 -12.626372 -59.041672 0
-8.6811924 -17.213243 -0.58058637 0 250 0 -0.75650567 -11.106423 -56.575443 0
-8.6114531 -17.310884 -0.60989261 0 250 0 -0.47403938 -11.731887 -53.121159 0
-8.4957514 -17.449709 -0.60221887 0 250 0 -0.12260155 -11.936311 -52.772297 0
-8.4714975 -17.487059 -0.58274615 0 250 0 -0.85937297 -12.321746 -53.323349 0
-8.3780985 -17.55201 -0.58391583 0 250 0 -0.67992771 -11.374698 -55.492737 0
-8.2729111 -17.677114 -0.63102728 0 250 0 0.70294881 -12.117476 -54.461952 0
-8.1736031 -17.800877 -0.64526522 0 250 0 0.67528468 -12.130013 -51.547028 0
-8.1766596 -17.85754 -0.63752562 0 250 0 -1.366141 -12.54156 -48.818302 0
-8.1047592 -17.921616 -0.64208204 0 250 0 -2.8068628 -12.063892 -45.731716 0
-8.0099154 -18.064579 -0.69359159 0 250 0 0.10157795 -11.961729 -44.84269 0
-7.9718819 -18.094112 -0.71342367 0 250 0 0.43813366 -12.960613 -45.757622 0
-7.8790774 -18.152742 -0.72469431 0 250 0 0.25740033 -13.119055 -48.754089 0
-7.777647 -18.258886 -0.74515516 0 250 0 -0.057639603 -12.668612 -51.053173 0
-7.6616445 -18.358288 -0.79832876 0 250 0 2.56109 -11.542449 -52.57954 0
-7.6276474 -18.389143 -0.8407988 0 250 0 3.4368758 -11.064669 -51.78352 0
-7.5417123 -18.501612 -0.8504864 0 250 0 3.7571249 -11.799309 -48.711765 0
-7.4287601 -18.610413 -0.85185099 0 250 0 2.6698711 -11.812745 -46.643219 0
-7.3905911 -18.652727 -0.8810634 0 250 0 3.1965296 -10.531553 -46.325893 0
-7.3018136 -18.753099 -0.93329889 0 250 0 2.9756327 -10.600632 -45.405903 0
-7.1343331 -18.879946 -0.92766196 0 250 0 0.51850718 -9.6189861 -47.549431 0
-7.0949249 -18.92403 -0.92088819 0 250 0 -0.37918568 -9.9280453 -48.565033 0
-6.9942274 -18.977114 -0.94122005 0 250 0 -0.16566715 -10.081069 -51.132961 0
-6.8511815 -19.116678 -0.97315681 0 250 0 2.4208 -8.782793 -51.710522 0
-6.720098 -19.244087 -0.99359417 0 250 0 2.3859878 -9.7303238 -49.015396 0
-6.6940174 -19.321257 -0.97776932 0 250 0 1.2726783 -10.677847 -46.82827 0
-6.594049 -19.375256 -0.97587091 0 250 0 -0.024810521 -11.144829 -44.999237 0
-6.4756999 -19.522123 -1.0217564 0 250 0 0.8972553 -11.282064 -43.27084 0
-6.4078164 -19.574125 -1.0320528 0 250 0 0.64761215 -11.422329 -43.177528 0
-6.2914972 -19.659573 -1.026565 0 250 0 -2.4133284 -10.611156 -46.631351 0
-6.1633148 -19.752588 -1.0064085 0 250 0 -2.7768304 -10.173818 -50.311501 0
-6.0368013 -19.849131 -1.0263106 0 250 0 -0.11694886 -9.1616602 -51.906898 0
-6.0008373 -19.880966 -1.0370834 0 250 0 0.73307639 -9.4855947 -51.483974 0
-5.9238224 -19.959017 -1.0468148 0 250 0 1.7059234 -11.39268 -48.732826 0
-5.814682 -20.084448 -1.0454608 0 250 0 1.218459 -11.288618 -45.880505 0
-5.7804999 -20.115108 -1.054996 0 250 0 -0.34848648 -10.901614 -44.465668 0
-5.6994748 -20.198727 -1.0988966 0 250 0 0.035489064 -11.738593 -43.29697 0
-5.578856 -20.293871 -1.1213191 0 250 0 -0.86467093 -12.528043 -44.056087 0
-5.5652742 -20.337271 -1.1145719 0 250 0 -1.2787994 -11.805198 -46.03529 0
-5.4668555 -20.392271 -1.1224877 0 250 0 -0.61132461 -10.437745 -49.819439 0
-5.3520799 -20.51193 -1.1654158 0 250 0 1.8097699 -11.491263 -50.122292 0
-5.2602816 -20.656279 -1.1888164 0 250 0 2.7021983 -12.560454 -48.371391 0
-5.2622523 -20.730621 -1.1881762 0 250 0 1.2510411 -12.906047 -46.801914 0
-5.1954522 -20.80323 -1.2041419 0 250 0 -0.84607583 -13.168048 -45.275448 0
-5.097466 -20.953249 -1.2768319 0 250 0 0.79083657 -12.270448 -45.494049 0
-5.0561647 -21.004938 -1.3124126 0 250 0 -0.038719509 -12.050377 -46.128231 0
-4.9455543 -21.09127 -1.3229619 0 250 0 -1.6382816 -10.43932 -48.79295 0
-4.817975 -21.220148 -1.341503 0 250 0 -0.83199632 -10.746189 -50.654919 0
-4.6859646 -21.3564 -1.3925077 0 250 0 1.2750952 -10.813236 -51.626816 0
-4.6374636 -21.419737 -1.4430501 0 250 0 2.1095409 -10.910703 -51.119419 0
-4.5107327 -21.529034 -1.4515275 0 250 0 2.316293 -12.595587 -49.266907 0
-4.3655252 -21.675484 -1.4474162 0 250 0 1.8527232 -11.684685 -46.246529 0
-4.2968183 -21.736116 -1.4729995 0 250 0 1.1614498 -11.531666 -44.517548 0
-4.1660829 -21.836655 -1.519994 0 250 0 0.95713508 -11.79994 -43.337364 0
-3.9840083 -21.967899 -1.5378671 0 250 0 0.071713284 -11.933472 -44.981377 0
-3.893923 -22.00144 -1.5259818 0 250 0 -0.67265213 -12.351184 -47.522915 0
-3.7589934 -22.071651 -1.525954 0 250 0 1.1342146 -10.889378 -50.31094 0
-3.6002903 -22.206015 -1.5730417 0 250 0 2.9637544 -10.29071 -50.296661 0
-3.4505632 -22.334181 -1.5741178 0 250 0 3.4803951 -10.743466 -49.430225 0
-3.420687 -22.400261 -1.5570763 0 250 0 3.366025 -11.10546 -48.660156 0
-3.3171961 -22.465609 -1.5658475 0 250 0 1.5463201 -11.164456 -47.659721 0
-3.1850977 -22.587307 -1.6031759 0 250 0 2.3078716 -9.8572159 -48.32658 0
-3.1208262 -22.630507 -1.6172384 0 250 0 1.219884 -9.8747921 -49.556637 0
-3.0100648 -22.712852 -1.616448 0 250 0 0.17869988 -9.8974876 -51.786671 0
-2.8553376 -22.807549 -1.619442 0 250 0 0.1689276 -8.6571522 -53.947296 0
-2.8043566 -22.852371 -1.6526968 0 250 0 1.7541047 -8.393508 -53.615128 0
-2.677547 -22.941238 -1.6811922 0 250 0 2.3208115 -8.2614431 -51.150742 0
-2.5206006 -23.067778 -1.6861907 0 250 0 1.4760844 -9.2328835 -45.298176 0
-2.3707922 -23.146561 -1.6698252 0 250 0 -0.48069507 -8.8357344 -39.023968 0
-2.3313653 -23.176018 -1.6782823 0 250 0 -1.0463066 -8.3020563 -34.737354 0
-2.2444232 -23.245024 -1.7110571 0 250 0 -1.6952246 -10.263426 -28.384335 0
-2.097826 -23.308685 -1.6937686 0 250 0 -2.8441756 -9.7988615 -27.511997 0
-2.1091318 -23.30064 -1.6871032 0 250 0 -2.9647331 -9.8267946 -27.343023 0
-2.0671976 -23.328564 -1.7136889 0 250 0 -0.65580314 -8.9637299 -26.924927 0
-1.9790572 -23.366455 -1.7730451 0 250 0 0.84748304 -10.527946 -23.151892 0
-1.8996452 -23.399778 -1.7925766 0 250 0 0.93827295 -11.491809 -17.286821 0
-1.944118 -23.391037 -1.8223873 0 250 0 0.1354461 -10.9587 -10.264561 0
-1.9091181 -23.399082 -1.8768326 0 250 0 -1.4201694 -11.602354 -2.7185647 0
-1.79554 -23.406851 -1.9604689 0 250 0 -0.93115669 -11.539792 2.9098334 0
-1.7978591 -23.380726 -1.9892724 0 250 0 -1.024099 -10.920356 4.9093924 0
-1.7269987 -23.370182 -2.0235183 0 250 0 -2.506912 -9.7797585 6.772368 0
-1.6010764 -23.338146 -2.0671601 0 250 0 -2.1252294 -8.4809227 7.5302501 0
-1.5713149 -23.320314 -2.1352205 0 250 0 -1.4553238 -9.1631479 9.7957897 0
-1.4534948 -23.285408 -2.1668887 0 250 0 -0.83835447 -10.066725 13.648993 0
-1.2727779 -23.252611 -2.1796055 0 250 0 -0.72286046 -11.214808 19.816179 0
-1.1391894 -23.194025 -2.187438 0 250 0 -1.70131 -11.038439 22.432365 0
-1.1137578 -23.164661 -2.2301645 0 250 0 -0.38861156 -10.899215 24.729956 0
-1.0221478 -23.111916 -2.2533007 0 250 0 -0.14307544 -11.650928 26.011204 0
-0.88064557 -23.035936 -2.2332768 0 250 0 -2.7545066 -10.125118 26.937969 0
-0.85349303 -22.998291 -2.2244546 0 250 0 -3.1451015 -8.6357508 26.056095 0
-0.76445001 -22.933714 -2.2418294 0 250 0 -2.2958469 -9.1895914 26.574774 0
-0.60551792 -22.85582 -2.2368209 0 250 0 -0.37493044 -9.3939724 29.232092 0
-0.4795298 -22.795483 -2.1954968 0 250 0 -0.95836306 -11.018736 32.435944 0
-0.48705724 -22.774961 -2.162766 0 250 0 -0.99500346 -10.915149 35.492264 0
-0.40680492 -22.727098 -2.1426179 0 250 0 -0.85078561 -10.366484 37.425346 0
-0.2941108 -22.625269 -2.1458917 0 250 0 -1.2152206 -12.006796 38.320824 0
-0.28409889 -22.596306 -2.1037493 0 250 0 -1.2011371 -11.578217 37.053646 0
-0.18830557 -22.549242 -2.0708115 0 250 0 -1.2162981 -11.738003 36.224533 0
-0.059887014 -22.444672 -2.0454772 0 250 0 1.2372073 -9.7306986 34.093307 0
-0.0010386008 -22.406458 -2.0441651 0 250 0 2.1469607 -9.5815907 33.998028 0
0.1351478 -22.327864 -2.020519 0 250 0 2.2699871 -10.878421 37.180275 0
0.32432514 -22.216572 -1.9631877 0 250 0 1.4387791 -9.2759199 41.322685 0
0.45087621 -22.098263 -1.9297498 0 250 0 0.095398568 -8.8154011 42.486973 0
0.50419593 -22.060013 -1.9300382 0 250 0 0.50953954 -9.45753 43.691166 0
0.61624956 -21.962572 -1.9082153 0 250 0 0.17780958 -10.548623 43.395378 0
0.74314082 -21.841003 -1.864612 0 250 0 -0.19242099 -9.801981 41.45956 0
0.79414302 -21.80348 -1.8440863 0 250 0 -0.39280951 -8.2567444 38.917641 0
0.90830749 -21.720709 -1.8450178 0 250 0 1.829011 -7.6614752 38.247116 0
1.0814128 -21.601299 -1.8173311 0 250 0 2.5124946 -8.230691 38.919689 0
1.2341547 -21.50395 -1.7501545 0 250 0 1.3892789 -8.6863041 39.425846 0
1.2568069 -21.481747 -1.7212081 0 250 0 0.14224094 -9.3196907 41.142147 0
1.3490905 -21.414845 -1.7170105 0 250 0 0.58139431 -9.4252129 41.897888 0
1.4752756 -21.290279 -1.7207683 0 250 0 -0.0032464482 -9.6122389 41.75634 0
1.5162596 -21.264629 -1.6793733 0 250 0 -0.99781287 -7.9214282 40.368401 0
1.5776652 -21.175751 -1.6449553 0 250 0 -1.4106754 -7.6507411 36.90361 0
1.7195737 -21.070774 -1.6537477 0 250 0 2.2835729 -7.43717 35.959717 0
1.8401506 -20.954184 -1.6502808 0 250 0 3.2335649 -8.2425766 35.580589 0
1.8833631 -20.951 -1.6247759 0 250 0 3.098681 -8.3390083 36.713451 0
1.9764259 -20.890562 -1.5839771 0 250 0 1.3872159 -8.6635361 40.934437 0
2.106225 -20.774183 -1.5880636 0 250 0 0.14073342 -10.361904 42.722 0
2.1480014 -20.751463 -1.6068602 0 250 0 0.010141485 -11.584104 43.402363 0
2.2152762 -20.644075 -1.5745682 0 250 0 -1.5487273 -10.264794 39.870125 0
2.3279488 -20.534901 -1.529227 0 250 0 -1.5030196 -10.107664 38.348709 0
2.3736577 -20.513702 -1.5281998 0 250 0 -0.21247625 -9.9237547 37.373001 0
2.4724092 -20.424543 -1.5448033 0 250 0 1.6275049 -10.737961 36.577461 0
2.6264143 -20.295473 -1.521456 0 250 0 2.73192 -11.63516 38.598309 0
2.7604022 -20.154984 -1.459169 0 250 0 1.7515862 -11.727599 42.163342 0
2.8171234 -20.125105 -1.4561321 0 250 0 -0.040282436 -12.616429 44.339451 0
2.9253109 -20.032583 -1.4827794 0 250 0 0.29658318 -14.897445 46.782368 0
3.0451174 -19.882046 -1.4496897 0 250 0 0.39128238 -14.209558 44.182369 0
3.083179 -19.837378 -1.4107398 0 250 0 0.15512089 -13.678477 41.284679 0
3.1947598 -19.747641 -1.4133027 0 250 0 2.0310907 -13.014877 38.678493 0
3.320529 -19.589077 -1.4279859 0 250 0 3.8743563 -11.838838 35.560997 0
3.4034731 -19.543144 -1.3996309 0 250 0 4.2279849 -10.339665 36.180607 0
3.5379534 -19.441786 -1.3356831 0 250 0 2.8300097 -10.446019 38.171604 0
3.6695535 -19.294212 -1.2867306 0 250 0 2.3476872 -11.138949 38.502144 0
3.8238208 -19.154713 -1.3075359 0 250 0 2.1064436 -12.95375 39.775257 0
3.8675225 -19.103401 -1.2753587 0 250 0 0.72630239 -13.192057 39.606926 0
3.9723473 -19.018801 -1.2235125 0 250 0 -0.63111174 -12.51738 37.855556 0
4.0871186 -18.900791 -1.1995381 0 250 0 -0.28746372 -11.968669 35.773327 0
4.1345239 -18.866907 -1.1992373 0 250 0 2.0909805 -12.002877 35.122379 0
4.2421365 -18.77434 -1.1702034 0 250 0 3.5139356 -12.425132 36.088974 0
4.4000735 -18.660135 -1.1144298 0 250 0 2.0421913 -14.231865 40.309826 0
4.5045419 -18.545277 -1.0683117 0 250 0 0.94884306 -14.362728 42.817875 0
4.5416293 -18.507015 -1.072418 0 250 0 2.6509998 -14.110285 43.254967 0
4.6225405 -18.405088 -1.0554472 0 250 0 1.974049 -14.853342 42.489338 0
4.7454515 -18.277826 -1.0127836 0 250 0 0.69588602 -14.685992 40.385475 0
4.7819557 -18.239607 -0.97400784 0 250 0 -0.17980368 -14.415597 37.089947 0
4.8763218 -18.155666 -0.96961933 0 250 0 2.2326999 -14.461704 34.408798 0
5.0109539 -18.030499 -0.97447789 0 250 0 3.1250622 -15.969895 34.407764 0
5.0601587 -17.976284 -0.94279569 0 250 0 3.2410412 -16.986864 36.207474 0
5.2052131 -17.885324 -0.90479624 0 250 0 2.1123159 -17.740353 39.981026 0
5.3147221 -17.759993 -0.90837824 0 250 0 2.0550935 -18.994188 41.531685 0
5.4612775 -17.629822 -0.94039923 0 250 0 0.68860644 -19.501862 43.272774 0
5.4938903 -17.567738 -0.91707015 0 250 0 -0.81006473 -18.088791 42.572002 0
5.5957737 -17.478497 -0.89154011 0 250 0 -2.1599724 -16.059374 41.283566 0
5.7194738 -17.339434 -0.89234918 0 250 0 -0.67020398 -14.378105 39.123379 0
5.781188 -17.277361 -0.90635246 0 250 0 1.0871503 -13.580122 37.510624 0
5.9146681 -17.165041 -0.89925277 0 250 0 2.1560421 -14.096442 38.568165 0
6.0889525 -17.024864 -0.84711772 0 250 0 2.4162991 -14.533353 40.048985 0
6.2166672 -16.892704 -0.8325569 0 250 0 0.9216646 -15.717008 41.709042 0
6.2807178 -16.846201 -0.85317409 0 250 0 1.3632339 -15.306339 42.382938 0
6.3727012 -16.72052 -0.85040587 0 250 0 0.63261193 -15.544865 42.055546 0
6.5244746 -16.590324 -0.81653011 0 250 0 0.059450313 -13.725846 40.847324 0
6.5883136 -16.532467 -0.80213499 0 250 0 -0.66347033 -13.351002 39.019722 0
6.7022934 -16.403448 -0.81468111 0 250 0 2.1911106 -11.668499 36.18214 0
6.871089 -16.233278 -0.8030256 0 250 0 2.4513967 -12.689712 37.624897 0
6.9412341 -16.167517 -0.7742278 0 250 0 2.0445774 -13.841877 40.531754 0
7.0690885 -16.053236 -0.7383039 0 250 0 0.3790476 -13.927693 42.903683 0
7.2111998 -15.885562 -0.73636639 0 250 0 1.493253 -13.481297 44.030224 0
7.3509364 -15.718639 -0.73926818 0 250 0 1.094372 -14.945998 45.060741 0
7.4064512 -15.645485 -0.71074271 0 250 0 -0.17899889 -14.64557 44.748383 0
7.491478 -15.513421 -0.68774635 0 250 0 -1.853755 -14.244008 43.901894 0
7.5974021 -15.317572 -0.68895566 0 250 0 0.92134315 -12.87296 42.622509 0
7.7051387 -15.125442 -0.68937355 0 250 0 1.5320731 -13.50773 45.132038 0
7.7601037 -15.055332 -0.66990352 0 250 0 1.5680182 -15.00547 49.362663 0
7.8226638 -14.919916 -0.64438313 0 250 0 0.65078485 -14.480781 55.772465 0
7.9298811 -14.725256 -0.64895046 0 250 0 -0.72635335 -13.561576 61.838158 0
7.9806938 -14.63968 -0.66219819 0 250 0 -1.3358554 -13.474001 65.953247 0
8.0308475 -14.489535 -0.64612496 0 250 0 -1.9223458 -12.642912 66.088875 0
8.0863781 -14.300554 -0.59939998 0 250 0 -2.7473485 -11.030126 66.071426 0
8.12006 -14.233083 -0.60100609 0 250 0 -2.1278234 -10.461297 66.565224 0
8.1693344 -14.098164 -0.62333572 0 250 0 -1.2900004 -11.766954 70.157768 0
8.2208042 -13.91 -0.6145339 0 250 0 -0.020276343 -12.646274 75.023476 0
8.275404 -13.761274 -0.57142663 0 250 0 -1.7166169 -12.4477 80.797112 0
8.3141785 -13.71229 -0.58646667 0 250 0 -2.9415498 -11.388296 85.985695 0
8.3738613 -13.574593 -0.61623389 0 250 0 -1.9584863 -11.977502 92.303886 0
8.4187632 -13.388566 -0.62009513 0 250 0 -2.4285507 -11.726341 95.089935 0
8.4699354 -13.329576 -0.61456168 0 250 0 -3.0084383 -10.235225 95.96389 0
8.4873571 -13.216583 -0.62340415 0 250 0 -3.2007251 -9.880579 94.584351 0
8.5133944 -13.042556 -0.66362858 0 250 0 -0.80997986 -10.700085 95.564133 0
8.5673275 -12.86704 -0.69446939 0 250 0 0.39196786 -11.800174 99.23568 0
8.6444149 -12.813597 -0.69690704 0 250 0 -0.84396803 -13.53365 102.73751 0
8.6425095 -12.705107 -0.70380604 0 250 0 -2.645263 -12.821968 106.92666 0
8.6636477 -12.517523 -0.74145859 0 250 0 -1.359901 -11.687575 109.11543 0
8.6867456 -12.461805 -0.78135031 0 250 0 -1.3966656 -13.30974 110.93371 0
8.6985312 -12.328018 -0.7776584 0 250 0 -1.9261426 -11.925262 110.64164 0
8.655983 -12.136847 -0.78631234 0 250 0 -2.8530416 -12.139281 110.24699 0
8.6486073 -11.977876 -0.83148557 0 250 0 0.099092007 -10.972837 109.37725 0
8.6675501 -11.929334 -0.87031299 0 250 0 1.3008064 -12.172095 111.23616 0
8.6741924 -11.810143 -0.8760401 0 250 0 1.2524267 -12.636497 115.82848 0
8.659502 -11.634558 -0.86229712 0 250 0 -1.6813742 -12.253929 122.76083 0
8.6654434 -11.602064 -0.87785846 0 250 0 -3.0846162 -11.596195 124.58497 0
8.6437368 -11.485918 -0.91667944 0 250 0 -2.7413707 -13.102502 126.00961 0
8.5956745 -11.343979 -0.93734574 0 250 0 -1.9478443 -14.043474 124.40483 0
8.606102 -11.305731 -0.95971102 0 250 0 -2.7431548 -13.637628 122.98302 0
8.551897 -11.234256 -0.99319857 0 250 0 -2.7995782 -12.960539 119.97242 0
8.4767323 -11.105015 -1.0322112 0 250 0 -0.095523097 -12.08956 119.64403 0
8.4413252 -10.973228 -1.0638264 0 250 0 1.2982397 -13.420317 122.23605 0
8.4535761 -10.930484 -1.0648887 0 250 0 0.066255219 -13.946992 123.90536 0
8.4105911 -10.844287 -1.0743537 0 250 0 -1.3402839 -13.255991 127.27211 0
8.355484 -10.688798 -1.1040118 0 250 0 0.16367237 -13.190543 127.87772 0
8.3432226 -10.635955 -1.1310517 0 250 0 0.21577096 -14.541932 127.80125 0
8.286828 -10.529423 -1.1217175 0 250 0 -0.82180977 -13.988264 126.18278 0
8.2058678 -10.38374 -1.116993 0 250 0 -0.68741274 -13.22277 123.38504 0
8.1733608 -10.324174 -1.1431345 0 250 0 2.0868232 -11.983027 119.99106 0
8.0906572 -10.211337 -1.1608815 0 250 0 3.5300703 -12.581813 120.31315 0
8.0163822 -9.9977627 -1.1540675 0 250 0 3.3956203 -13.861601 123.14954 0
7.9375491 -9.8463497 -1.1273504 0 250 0 1.370214 -13.42567 126.35526 0
7.9067144 -9.7837887 -1.1393044 0 250 0 0.58261389 -12.99906 126.56759 0
7.8207669 -9.6596451 -1.1549528 0 250 0 1.9738594 -13.314147 126.79362 0
7.712492 -9.4975939 -1.1404849 0 250 0 2.5775864 -13.535545 125.35637 0
7.6650958 -9.4434395 -1.1351938 0 250 0 1.4171381 -13.655833 124.67722 0
7.5670023 -9.335928 -1.128746 0 250 0 1.6929252 -12.18477 122.03158 0
7.4353266 -9.1672258 -1.1454637 0 250 0 3.601254 -12.770355 121.19793 0
7.3413734 -8.9958096 -1.1336621 0 250 0 3.9090095 -13.47479 122.90311 0
7.2972941 -8.9358606 -1.1128199 0 250 0 3.0742085 -13.527527 125.42519 0
7.1957231 -8.8320904 -1.1022195 0 250 0 0.36873603 -12.878865 127.43934 0
7.0629997 -8.6695833 -1.1086314 0 250 0 1.4308481 -12.634748 128.31688 0
6.9999018 -8.6038904 -1.0867877 0 250 0 1.73905 -13.47568 127.63727 0
6.8904996 -8.492713 -1.0561234 0 250 0 1.041904 -12.61263 126.18914 0
6.743691 -8.3557978 -1.046307 0 250 0 1.3631878 -12.578806 124.4206 0
6.6792483 -8.2968998 -1.0578198 0 250 0 3.0291791 -12.779427 123.13683 0
6.584024 -8.1582651 -1.0511389 0 250 0 4.6774545 -13.221885 124.68596 0
6.4703236 -7.9892278 -1.0078224 0 250 0 2.8709922 -13.390788 127.83736 0
6.3552318 -7.8557844 -0.98642188 0 250 0 1.1596313 -13.008748 129.11826 0
6.3060408 -7.7878633 -0.99574322 0 250 0 1.9501982 -12.031077 129.04417 0
0 0 0 1 0 0 0 1 0 0 0 1 0 0 0 0 0 525 1 0 0
