ply
format ascii 1.0
comment PCL generated
element vertex 525
property float x
property float y
property float z
property uchar red
property uchar green
property uchar blue
property float nx
property float ny
property float nz
property float curvature
element camera 1
property float view_px
property float view_py
property float view_pz
property float x_axisx
property float x_axisy
property float x_axisz
property float y_axisx
property float y_axisy
property float y_axisz
property float z_axisx
property float z_axisy
property float z_axisz
property float focal
property float scalex
property float scaley
property float centerx
property float centery
property int viewportx
property int viewporty
property float k1
property float k2
end_header
1.4145728 -1.6465385 -0.13579312 0 250 0 0.12497942 -10.543783 113.83383 0
1.4077421 -1.6316022 -0.12276254 0 250 0 0.38115099 -10.405084 113.37839 0
1.3936861 -1.6039325 -0.1145379 0 250 0 1.0028607 -10.171086 113.56566 0
1.3862462 -1.5901068 -0.10865664 0 250 0 1.3773047 -10.072906 113.93917 0
1.3741448 -1.5557441 -0.10310666 0 250 0 1.6511264 -9.7555294 114.63686 0
1.3444448 -1.4913354 -0.077126712 0 250 0 1.7034414 -9.7660847 116.30065 0
1.3333751 -1.4686593 -0.063905343 0 250 0 1.7901126 -10.116712 116.6999 0
1.3157545 -1.4248579 -0.047155265 0 250 0 2.7771003 -11.504269 117.22398 0
1.286429 -1.3699335 -0.039313797 0 250 0 3.3669877 -12.282463 116.7571 0
1.239538 -1.2998464 -0.046772484 0 250 0 3.6568344 -11.016947 115.41654 0
1.2131088 -1.2668645 -0.042513814 0 250 0 3.5641851 -10.635103 114.77773 0
1.157263 -1.2001332 -0.032935116 0 250 0 2.5598233 -11.089208 113.9025 0
1.0624328 -1.1116781 0.012177136 0 250 0 2.6515334 -11.364969 111.65496 0
1.0430593 -1.0824491 0.01070597 0 250 0 2.2320178 -12.161869 111.1834 0
0.98424518 -1.0462481 0.010897833 0 250 0 2.1872051 -10.458437 111.10046 0
0.89954436 -0.94185352 0.007081477 0 250 0 2.18611 -8.1921511 112.61317 0
0.80553931 -0.80555582 0.019049 0 250 0 1.2982401 -9.9893007 114.95037 0
0.75663078 -0.77564991 0.030510591 0 250 0 0.97729379 -9.4561634 115.48874 0
0.70218283 -0.69257039 0.058196742 0 250 0 0.40882173 -10.614711 118.01203 0
0.60099757 -0.59974605 0.071726128 0 250 0 2.6449673 -10.007672 120.31193 0
0.57132375 -0.54760224 0.065114647 0 250 0 2.2821217 -9.6999731 120.61063 0
0.4817026 -0.47384477 0.08224076 0 250 0 1.3033601 -10.039165 119.77615 0
0.36095843 -0.36015165 0.120952 0 250 0 0.85801017 -9.8530188 117.84361 0
0.32393363 -0.33689144 0.11456145 0 250 0 0.88235217 -11.017593 117.20855 0
0.24783021 -0.26567262 0.10105725 0 250 0 2.0492945 -9.1976128 116.92184 0
0.12587799 -0.14311515 0.097122721 0 250 0 2.3388922 -9.1035814 118.9389 0
-0.0021312751 -0.0079842824 0.13434024 0 250 0 1.9355085 -8.2440529 120.36391 0
-0.032468729 0.052019954 0.14706983 0 250 0 0.97811598 -9.5007763 121.61189 0
-0.099795744 0.10443846 0.15092146 0 250 0 2.4233944 -9.7874775 121.59451 0
-0.20569398 0.24904189 0.12917158 0 250 0 3.2235749 -10.011145 121.18543 0
-0.26056194 0.28616455 0.14655359 0 250 0 3.2720261 -9.7711926 120.3 0
-0.33587152 0.39544648 0.14044851 0 250 0 1.5831532 -11.643509 118.81812 0
-0.46619415 0.48371384 0.16429958 0 250 0 3.0919154 -12.187933 115.36347 0
-0.60268992 0.59024358 0.15795481 0 250 0 4.6589708 -10.262121 116.90079 0
-0.63377589 0.65970522 0.15653248 0 250 0 3.9073389 -11.198042 117.60829 0
-0.7094264 0.74739391 0.11391146 0 250 0 2.398402 -10.943603 117.36224 0
-0.84169805 0.92681491 0.16154294 0 250 0 0.91691202 -10.62696 119.61532 0
-0.90432227 0.92015749 0.17001516 0 250 0 1.9829594 -10.157808 119.22002 0
-0.96391845 1.0582299 0.17768328 0 250 0 4.0245967 -11.282725 120.51852 0
-1.1013441 1.1838063 0.15813029 0 250 0 2.3428369 -10.810382 119.61646 0
-1.1269826 1.23058 0.15559439 0 250 0 0.57052886 -11.536073 118.71956 0
-1.2115413 1.2817754 0.18358383 0 250 0 1.9146267 -11.494901 115.69999 0
-1.326802 1.3876454 0.14901555 0 250 0 2.6581795 -10.507809 113.92217 0
-1.4838769 1.5065392 0.15666822 0 250 0 2.2045105 -10.891961 115.03878 0
-1.5162516 1.5587877 0.1427509 0 250 0 1.6083986 -10.34654 115.4772 0
-1.6257941 1.6456169 0.18286701 0 250 0 0.84567326 -9.8377447 117.5619 0
-1.747255 1.7724183 0.22949405 0 250 0 1.0785248 -10.604736 119.52367 0
-1.7804719 1.8271604 0.23167613 0 250 0 1.3728052 -11.676632 120.28834 0
-1.8513856 1.9253565 0.20579626 0 250 0 1.6087502 -12.486827 119.12619 0
-1.9834762 2.0286345 0.19608065 0 250 0 -0.1251546 -11.753446 115.71262 0
-2.0332391 2.0605018 0.21478735 0 250 0 0.65940619 -11.281659 114.95366 0
-2.1159177 2.113821 0.19524644 0 250 0 2.0768459 -10.917606 113.99422 0
-2.2600844 2.2234435 0.20696671 0 250 0 2.7852936 -10.450323 116.58846 0
-2.3799384 2.3408124 0.20056459 0 250 0 1.9727224 -10.240602 118.77515 0
-2.4355226 2.3751361 0.21967432 0 250 0 2.2582526 -10.108579 120.69627 0
-2.4786582 2.4846132 0.21976227 0 250 0 0.41445825 -10.664597 123.28045 0
-2.6097994 2.5990763 0.22911927 0 250 0 1.8769042 -10.507791 123.42442 0
-2.6450696 2.6431057 0.2094357 0 250 0 1.4485676 -10.851115 122.95712 0
-2.7290668 2.7141099 0.18591155 0 250 0 0.23933601 -9.5297289 120.11283 0
-2.8584259 2.8179867 0.22432868 0 250 0 1.7237784 -9.3138943 117.2453 0
-3.0056248 2.9369402 0.22904837 0 250 0 3.5561681 -8.693367 116.84 0
-3.0517373 2.9811163 0.22228247 0 250 0 2.8568802 -8.952692 118.03155 0
-3.1286035 3.0992744 0.20241775 0 250 0 0.74076635 -10.868312 119.70198 0
-3.2576666 3.1856105 0.2074444 0 250 0 -2.5217271 -11.273219 121.80724 0
-3.2971947 3.2088094 0.2082274 0 250 0 -1.8364708 -10.840741 121.54884 0
-3.3884375 3.2991915 0.2273186 0 250 0 -0.39995655 -11.400896 122.47127 0
-3.4915061 3.4404824 0.18665187 0 250 0 -0.083783716 -11.919636 119.58022 0
-3.6270025 3.48911 0.19705741 0 250 0 1.110376 -10.165886 114.04091 0
-3.6841142 3.5182276 0.2094356 0 250 0 3.0581689 -9.2517061 114.12451 0
-3.7637322 3.5997872 0.17623413 0 250 0 3.4070194 -9.7468185 115.44331 0
-3.9241877 3.7255695 0.16445695 0 250 0 2.5716906 -10.976336 121.11918 0
-3.969805 3.750814 0.18209368 0 250 0 2.7425799 -11.196151 123.00001 0
-4.0308938 3.8404436 0.14807032 0 250 0 0.10572228 -10.912314 122.73048 0
-4.1525917 3.9523499 0.16092108 0 250 0 1.0000327 -11.417656 123.10107 0
-4.1865187 3.9862983 0.12907779 0 250 0 1.1719611 -11.310946 122.0345 0
-4.2656693 4.0956903 0.12547953 0 250 0 0.69946373 -11.341851 120.14126 0
-4.3974867 4.1390476 0.14867692 0 250 0 1.5429362 -9.8864899 116.39143 0
-4.518362 4.2338572 0.12897398 0 250 0 2.6031451 -10.421103 120.26431 0
-4.5615439 4.2949486 0.13165297 0 250 0 2.3805275 -10.802911 122.16628 0
-4.6390424 4.3894033 0.11600037 0 250 0 1.5910577 -12.311535 124.3354 0
-4.7564416 4.5099721 0.12445972 0 250 0 -0.31280297 -12.815399 123.85281 0
-4.7584348 4.544158 0.1231437 0 250 0 1.1008515 -11.567496 123.55833 0
-4.8526964 4.6760926 0.11504637 0 250 0 1.4320887 -12.910722 123.06586 0
-4.9778247 4.7972198 0.10123658 0 250 0 0.92756188 -12.24029 120.40721 0
-5.0838089 4.8446288 0.11444841 0 250 0 1.5084543 -11.707561 118.06353 0
-5.1268554 4.8795776 0.120582 0 250 0 2.8779085 -11.216523 118.41222 0
-5.1880722 4.9354482 0.09523724 0 250 0 2.7833016 -10.602814 120.28682 0
-5.3293786 5.027204 0.082517102 0 250 0 1.9826345 -12.479478 128.80411 0
-5.3719692 5.0703254 0.084622659 0 250 0 0.0062548001 -11.420163 131.47366 0
-5.4616137 5.1612301 0.088028058 0 250 0 -1.8383704 -11.362448 136.62175 0
-5.6345811 5.247654 0.094762735 0 250 0 -2.0734084 -10.188376 141.05154 0
-5.6699009 5.2646441 0.074583001 0 250 0 -2.4507775 -11.123102 142.19487 0
-5.772181 5.3072085 0.060957544 0 250 0 -2.4598608 -11.200134 144.08902 0
-5.9233346 5.397747 0.060582548 0 250 0 -4.1630354 -12.138584 146.69571 0
-6.0828938 5.4242845 0.064284727 0 250 0 -0.53099924 -10.317554 147.93071 0
-6.1172347 5.4111509 0.039247498 0 250 0 -0.71752322 -9.8785925 149.5472 0
-6.2809606 5.4299684 0.042837184 0 250 0 -0.780155 -10.059868 155.94691 0
-6.4441051 5.4568057 0.021396676 0 250 0 -2.3115935 -8.9062204 163.98997 0
-6.5184441 5.4588199 0.020810775 0 250 0 -3.9800372 -9.463273 165.40834 0
-6.6145654 5.4407115 0.012842421 0 250 0 -2.1315458 -7.9388428 169.18251 0
-6.8050885 5.4682078 -0.020553535 0 250 0 -1.6445566 -8.5412035 170.18817 0
-6.984333 5.4793625 -0.03601915 0 250 0 -3.6978805 -9.3338203 170.83803 0
-7.0143456 5.4336796 -0.037994757 0 250 0 -2.9561048 -7.8138733 170.25578 0
-7.1396618 5.4254689 -0.038275883 0 250 0 -0.90657282 -7.3177342 173.31161 0
-7.3343468 5.3421698 -0.061790727 0 250 0 -0.75091088 -7.8932333 181.6304 0
-7.3871565 5.3382554 -0.089574881 0 250 0 -2.2241657 -7.318933 181.24861 0
-7.526556 5.3171473 -0.081424266 0 250 0 -3.7677975 -5.6210885 182.52475 0
-7.7050157 5.2419224 -0.073029377 0 250 0 -2.1393771 -4.7814479 183.99449 0
-7.7309237 5.2102513 -0.098764069 0 250 0 -2.6881394 -6.1459532 181.21173 0
-7.8186145 5.1553388 -0.11508053 0 250 0 -1.8080491 -5.6697578 177.23019 0
-7.8274751 5.0459533 -0.12464909 0 250 0 -3.0988107 -5.8996239 172.62558 0
-8.0105247 4.9582815 -0.11048181 0 250 0 -0.25215027 -6.2184525 171.66026 0
-8.0616407 4.9119353 -0.12718251 0 250 0 -0.62047011 -7.2807927 170.15103 0
-8.1757088 4.8283839 -0.14745216 0 250 0 -2.3496451 -9.588253 169.99103 0
-8.2558165 4.7088881 -0.15336826 0 250 0 -3.1118093 -7.3292904 170.3772 0
-8.2973385 4.672895 -0.1516723 0 250 0 -1.6253994 -5.1018686 169.2135 0
-8.4171667 4.6010375 -0.15329601 0 250 0 -1.0237484 -7.2675819 167.92943 0
-8.5709877 4.4898176 -0.14485736 0 250 0 -2.2340322 -3.7191181 161.94897 0
-8.6125765 4.4506993 -0.12354824 0 250 0 -2.1541998 -4.3820167 158.39035 0
-8.6580887 4.3727865 -0.12803832 0 250 0 -1.2930255 -2.6821611 153.99112 0
-8.7604923 4.25741 -0.12877402 0 250 0 0.060454302 -3.3196495 153.52232 0
-8.8734818 4.1373262 -0.12036668 0 250 0 -1.2964203 -5.6583452 154.96762 0
-8.9068213 4.1033778 -0.11879976 0 250 0 -0.56923163 -5.5805922 154.17749 0
-8.9691877 4.042613 -0.1210903 0 250 0 -2.4980717 -5.6976495 150.95978 0
-9.1095209 3.9636686 -0.11981472 0 250 0 -1.8401225 -5.2730694 148.7021 0
-9.1205883 3.9031675 -0.15031882 0 250 0 -1.9239721 -5.6423836 145.39354 0
-9.2202892 3.8106983 -0.15410985 0 250 0 -1.1392441 -7.4556465 142.76991 0
-9.3332834 3.683404 -0.19614656 0 250 0 -1.2729371 -7.2176151 138.03629 0
-9.4477434 3.5390723 -0.20688723 0 250 0 0.218454 -6.8887258 137.81149 0
-9.5090389 3.5000415 -0.21258742 0 250 0 0.26235262 -7.1460233 136.28316 0
-9.5991154 3.4042327 -0.21706316 0 250 0 0.25907245 -6.9128098 136.13441 0
-9.7440023 3.2977107 -0.21130474 0 250 0 -0.74384773 -6.095685 133.20242 0
-9.7733259 3.2488129 -0.20868711 0 250 0 0.58019179 -4.8821878 131.49796 0
-9.8663282 3.1822677 -0.21313316 0 250 0 -0.070777595 -5.8819637 130.40836 0
-9.9842463 3.051429 -0.23302843 0 250 0 -0.33156362 -5.2244549 126.56279 0
-10.009008 3.0053806 -0.23946598 0 250 0 -1.1516017 -4.7960095 123.64059 0
-10.078742 2.9149427 -0.22572838 0 250 0 -0.764283 -3.9194746 119.64037 0
-10.179012 2.7780533 -0.22389939 0 250 0 1.2590218 -3.9372616 117.98888 0
-10.292253 2.629427 -0.24222602 0 250 0 1.8417614 -5.9113111 120.55507 0
-10.348599 2.5715055 -0.22485344 0 250 0 1.2437013 -6.1344566 120.89172 0
-10.451631 2.4874003 -0.23899117 0 250 0 -0.40616119 -7.0818968 120.64615 0
-10.576972 2.3547418 -0.22781692 0 250 0 0.86439145 -6.2513003 118.99918 0
-10.614734 2.3174713 -0.25221038 0 250 0 0.87753814 -6.86098 116.87743 0
-10.691295 2.2216265 -0.26090842 0 250 0 1.4940475 -6.5088043 114.63652 0
-10.806833 2.0679626 -0.24781811 0 250 0 0.16256034 -6.7617021 112.85113 0
-10.884177 1.9099319 -0.25386205 0 250 0 1.9088262 -7.0117755 112.48756 0
-10.898314 1.8507972 -0.27017218 0 250 0 1.700717 -6.3940215 111.76409 0
-10.953981 1.7208723 -0.27035302 0 250 0 1.3051898 -6.6230078 115.49348 0
-11.0214 1.5298648 -0.29431823 0 250 0 -0.1024569 -5.9870758 122.06876 0
-11.070173 1.4784236 -0.28749865 0 250 0 -0.6384728 -5.7999463 123.5737 0
-11.085392 1.3552825 -0.28458607 0 250 0 0.6075592 -4.8348956 125.54444 0
-11.157869 1.1639313 -0.29780048 0 250 0 0.057508744 -7.7664599 128.12779 0
-11.195632 0.97560227 -0.30449048 0 250 0 -1.5736485 -7.8362002 127.1426 0
-11.208457 0.9227559 -0.30929866 0 250 0 -1.1855451 -7.3247886 124.7517 0
-11.198901 0.79720604 -0.2895931 0 250 0 0.78690976 -6.6004348 123.78747 0
-11.203471 0.6160841 -0.33033302 0 250 0 1.6998914 -7.0073519 126.72298 0
-11.198719 0.55720502 -0.34535858 0 250 0 2.3812807 -6.6700473 127.7532 0
-11.190593 0.4276461 -0.33955327 0 250 0 2.4234452 -4.7235641 131.23735 0
-11.191022 0.24052715 -0.32426932 0 250 0 2.3620133 -4.6808357 137.2211 0
-11.188747 0.048508421 -0.34142959 0 250 0 3.0218177 -5.4601679 138.88092 0
-11.185144 -0.016252458 -0.3570298 0 250 0 2.8703325 -5.2743864 137.27631 0
-11.167588 -0.14978701 -0.35844103 0 250 0 -0.11481428 -5.1555419 135.93993 0
-11.152046 -0.34106505 -0.33934087 0 250 0 0.54753572 -5.0200014 132.69279 0
-11.134552 -0.39823562 -0.34656718 0 250 0 1.59677 -4.9194345 131.1321 0
-11.108763 -0.52208847 -0.36156464 0 250 0 3.7781546 -4.4944324 131.60541 0
-11.090372 -0.72390741 -0.3980847 0 250 0 3.1410511 -4.4698758 134.86653 0
-11.07717 -0.79404968 -0.38749254 0 250 0 3.5316536 -3.8722963 135.39906 0
-11.09318 -0.92973042 -0.37932906 0 250 0 1.5246234 -4.6709819 136.91548 0
-11.061307 -1.1110798 -0.37154904 0 250 0 3.8457754 -5.3897367 136.86095 0
-11.027877 -1.2930098 -0.40831539 0 250 0 2.3109255 -4.9932356 132.76726 0
-10.999023 -1.3505888 -0.40185016 0 250 0 0.8176437 -5.8924656 130.9845 0
-11.016014 -1.4720314 -0.41566947 0 250 0 -0.27441362 -6.6303139 127.04708 0
-10.92746 -1.6368762 -0.39939016 0 250 0 1.2690394 -5.8289537 124.24947 0
-10.905225 -1.6924211 -0.40814558 0 250 0 1.5993426 -6.3852348 124.01731 0
-10.89089 -1.8153689 -0.42903587 0 250 0 2.8676832 -6.9474268 123.37451 0
-10.864707 -2.0008276 -0.42968264 0 250 0 3.1777968 -5.0520949 124.54722 0
-10.857255 -2.0559425 -0.4276734 0 250 0 2.0159304 -4.4786901 121.74757 0
-10.826748 -2.1813903 -0.40202317 0 250 0 3.6256762 -3.5570419 119.01258 0
-10.818006 -2.385406 -0.44269562 0 250 0 1.5935557 -5.7614288 114.68474 0
-10.780315 -2.5837984 -0.41704342 0 250 0 -1.9198565 -3.9768009 108.8022 0
-10.781897 -2.6496441 -0.37494609 0 250 0 -2.3692636 -4.6934857 105.97083 0
-10.76536 -2.7517219 -0.37667918 0 250 0 -1.4469255 -4.1450524 101.51015 0
-10.746505 -2.9331317 -0.38396344 0 250 0 2.1470964 -4.4825535 100.02219 0
-10.769576 -3.004097 -0.38722292 0 250 0 2.4220326 -4.9559469 99.379303 0
-10.770391 -3.1387296 -0.39363939 0 250 0 0.58224404 -6.0871248 97.901024 0
-10.781631 -3.324568 -0.37363902 0 250 0 -0.84945524 -6.6321912 98.308174 0
-10.769807 -3.5158706 -0.39173582 0 250 0 0.73639357 -6.5239425 98.371552 0
-10.775046 -3.5828001 -0.40404442 0 250 0 0.3800514 -6.6884365 96.010521 0
-10.766374 -3.7181118 -0.4092949 0 250 0 -0.69459629 -8.5031757 91.423073 0
-10.727361 -3.9076571 -0.41238803 0 250 0 1.0054291 -6.5127869 84.528221 0
-10.734269 -3.9701464 -0.41106215 0 250 0 1.8862118 -5.9271188 83.13092 0
-10.706025 -4.0995545 -0.4458383 0 250 0 1.5907398 -5.3351068 82.445732 0
-10.697067 -4.3232703 -0.46285921 0 250 0 0.23259602 -6.3392138 84.421913 0
-10.664089 -4.3895135 -0.45690626 0 250 0 1.3426948 -5.4423518 85.979179 0
-10.67514 -4.5244226 -0.44614488 0 250 0 0.94605571 -5.545259 89.564148 0
-10.668663 -4.7311959 -0.45740658 0 250 0 3.954289 -5.0527029 90.588768 0
-10.640197 -4.9325948 -0.5049302 0 250 0 0.46041688 -4.8935709 85.281425 0
-10.644932 -5.0032005 -0.48880017 0 250 0 0.35592735 -4.1287727 83.506325 0
-10.608666 -5.124846 -0.48055252 0 250 0 1.1405358 -4.1803145 78.958145 0
-10.574993 -5.3151479 -0.52174342 0 250 0 2.5900774 -4.1384578 78.574394 0
-10.563608 -5.3907199 -0.52021456 0 250 0 2.0764024 -4.2227988 78.739906 0
-10.539845 -5.5357261 -0.5285241 0 250 0 1.4498928 -4.9365149 79.674789 0
-10.518672 -5.7376456 -0.51091301 0 250 0 0.83126855 -6.4258451 83.602402 0
-10.507475 -5.9337096 -0.52997631 0 250 0 1.8132178 -5.7679119 83.546043 0
-10.498666 -5.9951572 -0.55618477 0 250 0 1.6484363 -5.6805563 82.364777 0
-10.49273 -6.1243081 -0.58385801 0 250 0 -1.0419489 -5.0265579 78.529144 0
-10.480467 -6.3124909 -0.5842464 0 250 0 -1.0244108 -3.4926579 70.986328 0
-10.466788 -6.3738122 -0.5852648 0 250 0 0.37672696 -3.2271163 69.107491 0
-10.454122 -6.497293 -0.63156313 0 250 0 0.51854801 -2.0426407 66.994308 0
-10.432959 -6.7268395 -0.64315128 0 250 0 -0.44972637 -3.0609753 69.696472 0
-10.441473 -6.9276552 -0.61700022 0 250 0 0.63290852 -4.0213909 73.062859 0
-10.421513 -6.9792919 -0.62331617 0 250 0 2.1117811 -3.8544509 72.67865 0
-10.439174 -7.1076784 -0.62671894 0 250 0 2.5720272 -4.1254745 73.213219 0
-10.451815 -7.3061237 -0.6846742 0 250 0 -1.0152336 -4.9001451 69.294655 0
-10.406624 -7.3796248 -0.6808154 0 250 0 -1.4443507 -5.1184316 66.481636 0
-10.436462 -7.5094142 -0.67272604 0 250 0 -1.3093172 -5.857625 61.168354 0
-10.420771 -7.7023253 -0.67993879 0 250 0 2.5038655 -6.0460296 59.637505 0
-10.4072 -7.7668185 -0.69944251 0 250 0 3.1213868 -6.0558915 59.854408 0
-10.441168 -7.9129591 -0.74554491 0 250 0 3.9244533 -6.4107428 62.285305 0
-10.453908 -8.1318436 -0.71371001 0 250 0 1.4892057 -5.9511013 66.233711 0
-10.477633 -8.3027344 -0.71515286 0 250 0 3.8838897 -6.8624353 68.192314 0
-10.492779 -8.3610039 -0.74095255 0 250 0 3.3136449 -6.8823371 66.692657 0
-10.511615 -8.4936724 -0.75747478 0 250 0 0.99930859 -4.7770824 62.83099 0
-10.519106 -8.6838083 -0.73863393 0 250 0 -0.48853391 -6.1294961 58.486942 0
-10.50009 -8.7379875 -0.73635405 0 250 0 -0.76426131 -5.426218 56.402515 0
-10.496302 -8.8521528 -0.7322157 0 250 0 1.2757075 -5.3266654 56.127617 0
-10.519231 -9.0248318 -0.7609995 0 250 0 1.5831172 -5.1046247 58.197681 0
-10.555793 -9.0799131 -0.78013211 0 250 0 1.1467155 -5.7622132 58.796978 0
-10.577682 -9.1890345 -0.7745977 0 250 0 0.97178131 -5.5511622 59.840435 0
-10.637152 -9.3349581 -0.74724919 0 250 0 1.016456 -6.0706434 58.722782 0
-10.708104 -9.4688835 -0.7804718 0 250 0 0.70832038 -5.7702818 55.500923 0
-10.717196 -9.5212688 -0.78230315 0 250 0 0.18576382 -5.1828694 53.159805 0
-10.726573 -9.6280174 -0.79735553 0 250 0 -0.71299917 -4.9640641 50.684784 0
-10.752989 -9.7968884 -0.76465809 0 250 0 -1.1485354 -5.4599285 45.420387 0
-10.754138 -9.8353844 -0.76577777 0 250 0 0.41154584 -6.2906604 44.95322 0
-10.753629 -9.9140911 -0.78969151 0 250 0 1.0673349 -5.8711777 44.112709 0
-10.76468 -10.078538 -0.80797428 0 250 0 1.6922561 -4.6602521 47.36261 0
-10.775369 -10.248026 -0.80831677 0 250 0 1.5795765 -6.0804996 51.583363 0
-10.806931 -10.306082 -0.80150813 0 250 0 1.6443528 -6.4712181 53.132164 0
-10.812984 -10.402866 -0.80377799 0 250 0 2.6253324 -6.8237605 53.663593 0
-10.841161 -10.564691 -0.84694529 0 250 0 1.8343456 -5.7660494 53.23843 0
-10.843609 -10.629785 -0.85411638 0 250 0 1.3126537 -5.5593719 52.146282 0
-10.853349 -10.751394 -0.87339896 0 250 0 -2.1075113 -7.0779381 49.065037 0
-10.841418 -10.926564 -0.85814756 0 250 0 -0.82059777 -6.7778707 44.695396 0
-10.834556 -10.979268 -0.86083436 0 250 0 0.24249981 -5.8817301 43.81636 0
-10.844755 -11.099174 -0.88355094 0 250 0 1.0793325 -5.9656281 42.843937 0
-10.849315 -11.310506 -0.90813661 0 250 0 0.97682476 -8.3037739 44.995979 0
-10.913144 -11.519745 -0.89342779 0 250 0 -0.86391705 -10.513646 49.634716 0
-10.908928 -11.569604 -0.8882094 0 250 0 -0.74377435 -10.840087 48.367973 0
-10.911775 -11.69046 -0.88795185 0 250 0 0.85069937 -10.765909 48.879276 0
-10.947245 -11.86806 -0.95285505 0 250 0 -0.59818846 -9.8278933 45.852299 0
-10.933067 -11.935852 -0.95441586 0 250 0 -2.2487297 -9.3435383 43.975391 0
-10.955722 -12.073592 -0.9272691 0 250 0 -1.9754629 -10.01073 42.218361 0
-10.94945 -12.246528 -0.93656981 0 250 0 1.1154325 -9.370141 37.280499 0
-10.933781 -12.433323 -0.98178452 0 250 0 1.2878499 -9.117775 38.551224 0
-10.934048 -12.491393 -1.0029161 0 250 0 1.4185781 -10.030605 39.443027 0
-10.928948 -12.61048 -1.0138865 0 250 0 1.3526249 -9.0572281 41.440083 0
-10.953136 -12.77564 -1.0220023 0 250 0 0.77966559 -6.4829125 41.660107 0
-10.947013 -12.851477 -0.99829072 0 250 0 1.9492068 -5.8197298 42.159939 0
-10.962991 -12.975325 -1.0394341 0 250 0 1.1067389 -8.5396709 41.861507 0
-10.941836 -13.164079 -1.0711497 0 250 0 -1.0773491 -7.2288909 38.960331 0
-10.947683 -13.228164 -1.0608797 0 250 0 -0.3062444 -6.4986625 37.748741 0
-10.94517 -13.351266 -1.0590949 0 250 0 1.3054056 -6.6970906 34.654423 0
-10.942367 -13.542017 -1.0954428 0 250 0 2.3009071 -6.0944166 34.677429 0
-10.931188 -13.725699 -1.1148367 0 250 0 0.81144613 -6.6002278 34.689205 0
-10.925993 -13.786467 -1.1102501 0 250 0 1.048559 -5.7680817 37.371685 0
-10.936702 -13.916276 -1.1049967 0 250 0 -0.45037714 -5.770762 38.197948 0
-10.935182 -14.120665 -1.1269979 0 250 0 1.3070061 -6.2598958 40.574474 0
-10.94308 -14.185927 -1.1517183 0 250 0 0.37286735 -6.6279697 38.795681 0
-10.907318 -14.31595 -1.1577369 0 250 0 -1.5671802 -4.7479653 35.033382 0
-10.904216 -14.509286 -1.1444844 0 250 0 -0.1862053 -4.8437867 30.533432 0
-10.89503 -14.70806 -1.1672021 0 250 0 0.62382132 -4.9754119 30.251055 0
-10.900036 -14.775481 -1.1815952 0 250 0 0.64837253 -6.2481246 30.775953 0
-10.883372 -14.910938 -1.1751832 0 250 0 0.28485319 -5.0760212 31.27907 0
-10.896392 -15.103292 -1.1625003 0 250 0 0.81256354 -6.2368674 33.081341 0
-10.894809 -15.177238 -1.1534405 0 250 0 1.4044712 -6.2041616 33.489937 0
-10.902005 -15.302311 -1.2034794 0 250 0 0.76867306 -7.9594903 33.833454 0
-10.889675 -15.514792 -1.2143945 0 250 0 -0.59121478 -5.5575185 29.077757 0
-10.904189 -15.582417 -1.2125936 0 250 0 -0.72113204 -5.5129304 27.847435 0
-10.888265 -15.70149 -1.2096305 0 250 0 -0.25404963 -4.9922056 24.905819 0
-10.867233 -15.923802 -1.2326328 0 250 0 -0.062202968 -5.8772211 27.848373 0
-10.840855 -16.112595 -1.253046 0 250 0 -0.62745517 -6.2335382 37.14896 0
-10.839452 -16.208347 -1.252414 0 250 0 -2.5250449 -6.4428058 39.895027 0
-10.813264 -16.320171 -1.2629849 0 250 0 -1.3532871 -4.5154915 42.317924 0
-10.785419 -16.535923 -1.3201219 0 250 0 -1.7050121 -5.8204727 44.8829 0
-10.759915 -16.605963 -1.3167902 0 250 0 -1.9628217 -5.6228271 44.153545 0
-10.705639 -16.724915 -1.3141017 0 250 0 -1.5548458 -5.5905623 45.132462 0
-10.626129 -16.900053 -1.2984201 0 250 0 1.1317078 -5.6205378 47.299149 0
-10.604676 -16.965567 -1.3135355 0 250 0 1.7032467 -6.2406158 48.203514 0
-10.523859 -17.10968 -1.3413223 0 250 0 3.5688398 -5.9843411 50.914082 0
-10.402959 -17.273525 -1.3625293 0 250 0 4.4269114 -7.720015 59.958088 0
-10.314928 -17.446609 -1.3787971 0 250 0 2.7047746 -5.2162776 63.976814 0
-10.269074 -17.585707 -1.3768041 0 250 0 4.5727992 -4.7560019 66.388 0
-10.199965 -17.707594 -1.4236001 0 250 0 3.7236755 -7.1461821 68.101372 0
-10.072017 -17.890375 -1.4388638 0 250 0 3.1444314 -7.1226854 66.524849 0
-10.046816 -17.956938 -1.4434546 0 250 0 2.3076041 -7.3430448 65.058823 0
-9.9359932 -18.041473 -1.4294776 0 250 0 4.1441169 -6.1164246 63.586094 0
-9.8000641 -18.200497 -1.4970778 0 250 0 5.1541748 -6.1637483 66.080597 0
-9.6539621 -18.373497 -1.5212051 0 250 0 3.0917404 -7.4825101 69.915413 0
-9.6358061 -18.4646 -1.5282173 0 250 0 2.4077792 -7.1542044 72.095024 0
-9.5342531 -18.556326 -1.5112295 0 250 0 3.8025744 -6.4977322 72.111259 0
-9.4042921 -18.754629 -1.568256 0 250 0 5.0869403 -8.1933708 71.803879 0
-9.3511696 -18.818998 -1.5697662 0 250 0 4.6106806 -7.9246798 69.590454 0
-9.2345304 -18.903913 -1.5657631 0 250 0 4.9855943 -7.8268065 67.291 0
-9.0966749 -19.048367 -1.57209 0 250 0 6.1622329 -6.4513478 63.652588 0
-8.9345932 -19.195169 -1.5951856 0 250 0 7.9329467 -5.5945635 64.890564 0
-8.8804302 -19.2397 -1.6134744 0 250 0 8.4774036 -6.7468338 65.899689 0
-8.7726126 -19.37101 -1.621774 0 250 0 8.409133 -6.9917068 68.697235 0
-8.6249189 -19.511751 -1.624962 0 250 0 7.8235984 -5.1284337 68.565582 0
-8.5760355 -19.561922 -1.6307149 0 250 0 7.7241492 -5.5607419 69.279457 0
-8.4913664 -19.674986 -1.6882541 0 250 0 6.7134604 -4.7814341 67.745094 0
-8.3065071 -19.827681 -1.6748403 0 250 0 3.6008389 -4.4173059 64.538933 0
-8.267148 -19.88999 -1.6677566 0 250 0 2.619452 -6.0085616 62.796841 0
-8.1635065 -19.951363 -1.6885549 0 250 0 5.2233863 -4.5114212 60.789173 0
-7.9969597 -20.110537 -1.7023237 0 250 0 6.6918015 -2.6076605 62.661686 0
-7.831306 -20.259825 -1.7287865 0 250 0 6.010438 -5.4902472 65.696945 0
-7.802247 -20.350449 -1.7286278 0 250 0 4.9166794 -5.7752619 66.770332 0
-7.6962075 -20.403484 -1.71463 0 250 0 5.3229384 -5.6041803 66.769768 0
-7.5692821 -20.574604 -1.7857513 0 250 0 5.2621341 -6.6852837 67.724281 0
-7.5176959 -20.635126 -1.798454 0 250 0 3.8883979 -5.9993024 65.717155 0
-7.4073696 -20.736883 -1.8059505 0 250 0 1.1639227 -5.5452642 61.194656 0
-7.2567296 -20.86203 -1.7983783 0 250 0 3.3798077 -3.7749467 56.890812 0
-7.0802431 -20.998579 -1.830604 0 250 0 4.6069627 -4.1512513 58.129025 0
-7.0149069 -21.051319 -1.8320378 0 250 0 5.4366064 -5.4151258 59.216129 0
-6.90522 -21.14399 -1.8550397 0 250 0 5.4438376 -6.1730819 61.726509 0
-6.7521348 -21.303143 -1.8638538 0 250 0 3.8156397 -5.5556636 63.486652 0
-6.6896071 -21.349508 -1.8593423 0 250 0 4.8093944 -5.6462369 63.756882 0
-6.5847731 -21.451132 -1.8982648 0 250 0 4.1777277 -7.5969276 64.199478 0
-6.4211516 -21.578556 -1.9448876 0 250 0 2.7012372 -6.7765698 60.706989 0
-6.3823662 -21.639246 -1.9463488 0 250 0 2.1127841 -6.0472646 58.580097 0
-6.2429476 -21.69607 -1.9344786 0 250 0 4.1643677 -4.8462157 55.887001 0
-6.0694661 -21.825439 -1.96439 0 250 0 6.6642547 -7.1042361 57.133633 0
-5.9065728 -21.993126 -1.9826792 0 250 0 4.956511 -7.9828691 59.431248 0
-5.8677635 -22.076817 -1.975469 0 250 0 3.4893677 -8.1599627 60.259838 0
-5.7625489 -22.147533 -1.9755619 0 250 0 3.91414 -7.9367414 59.236053 0
-5.6237535 -22.315849 -2.0386531 0 250 0 3.3739657 -7.4402294 58.31741 0
-5.5716252 -22.366846 -2.0544505 0 250 0 2.2636127 -6.7098036 56.825924 0
-5.4458475 -22.446163 -2.0462151 0 250 0 1.9588686 -4.7211232 53.758793 0
-5.2926207 -22.580688 -2.0426745 0 250 0 4.0593815 -5.928844 51.497097 0
-5.127315 -22.733423 -2.0740318 0 250 0 5.5414271 -6.6245217 52.988213 0
-5.0831838 -22.783855 -2.1062629 0 250 0 5.6144013 -8.1271105 53.525658 0
-4.9629741 -22.87668 -2.1161315 0 250 0 5.7798152 -6.8905387 54.997013 0
-4.8161922 -23.024078 -2.1061313 0 250 0 5.2270017 -6.7664919 58.034412 0
-4.7723584 -23.073086 -2.1176383 0 250 0 5.56952 -7.0329752 58.654266 0
-4.6818867 -23.168953 -2.1630068 0 250 0 4.2096195 -7.3976574 57.718876 0
-4.5236521 -23.31707 -2.19572 0 250 0 2.4639895 -8.0806856 53.325066 0
-4.4671679 -23.350042 -2.1946499 0 250 0 2.7578745 -7.3108172 51.209988 0
-4.3486423 -23.420872 -2.1845419 0 250 0 5.3065381 -6.1156664 49.993584 0
-4.1879549 -23.569468 -2.2363276 0 250 0 6.6684127 -5.7598777 51.102795 0
-4.0177984 -23.72311 -2.2443333 0 250 0 7.1499238 -6.6273618 52.783546 0
-3.993063 -23.806362 -2.240365 0 250 0 5.3492069 -6.9510441 53.45039 0
-3.8865042 -23.879181 -2.2596245 0 250 0 5.8465161 -5.0340147 51.519672 0
-3.7396286 -24.016899 -2.3226697 0 250 0 3.938952 -5.3934221 49.159622 0
-3.6766524 -24.062859 -2.3292246 0 250 0 4.192327 -5.0256133 47.958435 0
-3.5640702 -24.149637 -2.3401148 0 250 0 2.4348316 -5.470057 45.300739 0
-3.3829322 -24.255251 -2.3401852 0 250 0 4.2157559 -3.659744 44.094669 0
-3.3309107 -24.294214 -2.3564909 0 250 0 4.9173031 -3.8217752 44.816776 0
-3.1976893 -24.372545 -2.3857617 0 250 0 5.7219634 -3.9656849 48.010727 0
-3.0127907 -24.507814 -2.4227512 0 250 0 4.1127462 -4.8759108 56.639069 0
-2.8086107 -24.608927 -2.4250567 0 250 0 3.814579 -3.8921924 63.366142 0
-2.7406714 -24.655447 -2.428122 0 250 0 3.7063529 -5.0559983 66.650146 0
-2.6233752 -24.75106 -2.4821084 0 250 0 3.23417 -7.1360707 69.948608 0
-2.4046531 -24.848465 -2.4708171 0 250 0 1.8375127 -6.0086832 68.601509 0
-2.3366287 -24.854031 -2.4770782 0 250 0 2.8742745 -5.7202725 67.786278 0
-2.1904895 -24.89304 -2.4678349 0 250 0 5.6353488 -6.0685425 69.855507 0
-1.9674042 -24.94347 -2.5109236 0 250 0 7.2373829 -7.7041922 76.774689 0
-1.7341565 -24.989298 -2.4924431 0 250 0 5.638166 -8.1692839 88.30455 0
-1.6595678 -24.98155 -2.4839416 0 250 0 4.0726485 -9.3503304 90.582901 0
-1.5205867 -24.989067 -2.4886079 0 250 0 6.9409389 -8.8809681 96.571709 0
-1.290979 -25.003359 -2.5509665 0 250 0 6.4059281 -9.192378 100.27304 0
-1.2156593 -24.982939 -2.5352423 0 250 0 5.2557998 -8.2247543 100.31353 0
-1.0719908 -24.977966 -2.5339053 0 250 0 4.6911821 -7.7411213 101.44591 0
-0.86052424 -24.942818 -2.528816 0 250 0 6.2824721 -8.1602182 104.00575 0
-0.79108918 -24.92432 -2.544225 0 250 0 6.8314958 -8.2507544 105.32413 0
-0.64039516 -24.887684 -2.547652 0 250 0 7.2494063 -10.275982 109.50954 0
-0.40024617 -24.85289 -2.5378497 0 250 0 5.6325641 -11.57016 115.44022 0
-0.19552571 -24.786812 -2.5187054 0 250 0 7.6012478 -12.245499 119.08609 0
-0.12994784 -24.761024 -2.540195 0 250 0 8.0157595 -13.424469 119.59229 0
0.00099563587 -24.70817 -2.5694864 0 250 0 6.4868493 -12.067646 119.31815 0
0.200863 -24.627949 -2.5555556 0 250 0 4.5849528 -9.4797077 118.59367 0
0.26434442 -24.589411 -2.534451 0 250 0 5.3566551 -8.7503481 118.3559 0
0.38373685 -24.515608 -2.5549233 0 250 0 6.3441076 -10.409724 119.72667 0
0.59900695 -24.414669 -2.5633976 0 250 0 7.1395254 -13.009598 124.5527 0
0.80255634 -24.320625 -2.5327706 0 250 0 5.4980364 -13.667406 128.25691 0
0.84084982 -24.272362 -2.5258451 0 250 0 6.1065731 -12.965988 128.67284 0
0.96570873 -24.199379 -2.5103228 0 250 0 6.5452213 -14.432274 130.57245 0
1.1386214 -24.062586 -2.5458434 0 250 0 5.8968887 -13.940892 128.28835 0
1.1802061 -24.009907 -2.5314176 0 250 0 5.8223724 -13.87429 128.16904 0
1.3002554 -23.9377 -2.5408373 0 250 0 6.2556453 -13.616381 125.801 0
1.4542484 -23.797115 -2.525847 0 250 0 9.7787523 -11.615298 125.41942 0
1.5007206 -23.739157 -2.5321274 0 250 0 9.9078493 -11.952002 126.62962 0
1.6209301 -23.64007 -2.550102 0 250 0 8.9025974 -13.612718 129.57272 0
1.8198222 -23.494511 -2.5190399 0 250 0 6.72791 -11.558435 133.6543 0
1.9692683 -23.326038 -2.5046592 0 250 0 7.3922329 -13.345269 134.5927 0
2.0178168 -23.267092 -2.5245652 0 250 0 7.5136218 -14.207687 134.59245 0
2.1241384 -23.149601 -2.5393417 0 250 0 6.4112201 -13.751039 132.25244 0
2.2585778 -22.994778 -2.5247591 0 250 0 6.2801633 -11.176993 128.48277 0
2.2967584 -22.940474 -2.5112815 0 250 0 8.1157465 -10.097214 128.26952 0
2.3964233 -22.841085 -2.5227127 0 250 0 9.18011 -10.325826 128.40723 0
2.5810795 -22.681784 -2.5340786 0 250 0 8.6991568 -11.293094 128.91838 0
2.7635608 -22.536398 -2.4885013 0 250 0 5.9589605 -12.999929 130.04543 0
2.7969108 -22.479675 -2.4836245 0 250 0 6.9264116 -12.526716 130.25595 0
2.9077656 -22.382 -2.4937363 0 250 0 7.1752515 -13.350132 131.1347 0
3.0697107 -22.207399 -2.520469 0 250 0 5.5827608 -10.152407 128.67749 0
3.1343477 -22.153212 -2.4987681 0 250 0 5.682034 -9.8275414 127.76971 0
3.2145715 -22.026686 -2.4737778 0 250 0 7.0968671 -8.9603634 123.83271 0
3.3868272 -21.878984 -2.4877892 0 250 0 10.257721 -10.653333 123.92033 0
3.5448477 -21.697412 -2.4832315 0 250 0 9.2088156 -9.9279041 125.65465 0
3.6099494 -21.646244 -2.4653316 0 250 0 9.392911 -10.270143 128.44659 0
3.7285421 -21.542974 -2.430588 0 250 0 6.1493583 -13.079099 129.49347 0
3.8966079 -21.373535 -2.4486251 0 250 0 6.6648149 -14.823476 130.41019 0
3.9592407 -21.321415 -2.4790213 0 250 0 5.942246 -14.15264 128.33829 0
4.0378089 -21.177896 -2.4538767 0 250 0 6.0328741 -11.79907 125.46934 0
4.1772871 -21.010654 -2.4050124 0 250 0 6.6579208 -11.827994 123.75226 0
4.2293673 -20.957615 -2.398365 0 250 0 8.1886587 -12.433859 123.18212 0
4.3236074 -20.836876 -2.423125 0 250 0 9.3662777 -12.842143 123.17781 0
4.4848838 -20.664448 -2.4217699 0 250 0 9.4547415 -14.393943 127.3728 0
4.6344976 -20.471691 -2.35619 0 250 0 7.2284122 -15.433375 130.70459 0
4.6958766 -20.411884 -2.3439782 0 250 0 7.6647692 -17.129713 132.24521 0
4.8161273 -20.294298 -2.4173465 0 250 0 6.4997916 -18.314991 131.01868 0
4.9539266 -20.114048 -2.4008117 0 250 0 6.6099019 -16.344431 125.64158 0
4.9886112 -20.054644 -2.3807743 0 250 0 7.500742 -15.140357 124.4498 0
5.0922632 -19.956991 -2.3878834 0 250 0 9.7861767 -16.016005 122.28675 0
5.2066073 -19.773617 -2.416168 0 250 0 11.106342 -12.414415 121.40636 0
5.2715535 -19.722027 -2.4239173 0 250 0 9.8649302 -12.551344 122.46555 0
5.3987546 -19.618019 -2.3883734 0 250 0 8.0114374 -12.948026 123.228 0
5.5364223 -19.454708 -2.331115 0 250 0 9.6999836 -15.164513 124.1901 0
5.7110863 -19.28912 -2.3838778 0 250 0 6.6316538 -16.23572 123.16854 0
5.7581735 -19.225605 -2.3793905 0 250 0 5.2972269 -15.521771 121.73491 0
5.8703618 -19.125986 -2.3516154 0 250 0 5.1948056 -15.103404 119.50208 0
6.0071597 -18.973135 -2.345669 0 250 0 9.1785784 -14.611459 118.72681 0
6.0533967 -18.923824 -2.362294 0 250 0 9.8302994 -13.919914 118.64333 0
6.1570153 -18.809847 -2.3521237 0 250 0 10.100042 -16.449492 121.0153 0
6.3448644 -18.653666 -2.3286698 0 250 0 6.6932473 -17.57143 125.9384 0
6.4920421 -18.487009 -2.2992184 0 250 0 9.1745472 -17.995964 126.45001 0
6.5470076 -18.430059 -2.3295395 0 250 0 8.6145287 -18.586742 126.01832 0
6.6444674 -18.313248 -2.34583 0 250 0 7.1825042 -18.216152 123.30238 0
6.7919893 -18.159081 -2.3301041 0 250 0 6.023632 -16.873671 118.04504 0
6.8292236 -18.106741 -2.2976141 0 250 0 8.2107897 -16.056595 117.18162 0
6.9157825 -18.010477 -2.2892048 0 250 0 9.7369528 -17.97171 115.71397 0
7.055716 -17.85708 -2.3014619 0 250 0 9.7985039 -19.922457 117.96789 0
7.0785856 -17.794767 -2.2732203 0 250 0 10.007026 -20.519196 119.42809 0
7.2238703 -17.694099 -2.243356 0 250 0 7.7222524 -22.005722 121.43173 0
7.3403983 -17.543495 -2.2399986 0 250 0 7.6769218 -23.921247 123.96696 0
7.5123878 -17.384254 -2.2933168 0 250 0 4.5894566 -21.15724 122.21137 0
7.5405054 -17.314722 -2.2834291 0 250 0 4.3779249 -20.20186 121.45305 0
7.6416192 -17.222555 -2.2582741 0 250 0 3.8429072 -18.46266 119.99677 0
7.7720213 -17.06542 -2.2612457 0 250 0 7.9554396 -16.601688 117.82721 0
7.8131142 -17.004189 -2.2649477 0 250 0 8.4223518 -16.186062 118.26979 0
7.9292583 -16.891726 -2.2744324 0 250 0 8.9423113 -17.579016 119.73188 0
8.1095419 -16.7353 -2.2135844 0 250 0 7.1228166 -19.275393 121.56187 0
8.2501907 -16.578812 -2.2014136 0 250 0 7.9024334 -19.417253 122.68322 0
8.3113785 -16.53322 -2.2257173 0 250 0 7.4835186 -19.767923 122.49538 0
8.3949175 -16.406992 -2.2424598 0 250 0 6.04352 -17.759159 120.25516 0
8.5577116 -16.268055 -2.2194939 0 250 0 6.2531486 -16.32794 117.72887 0
8.6130266 -16.223091 -2.2068067 0 250 0 8.4754229 -14.443728 116.91446 0
8.7141647 -16.103792 -2.2055383 0 250 0 8.9843254 -14.548662 115.58167 0
8.8833799 -15.928308 -2.1974785 0 250 0 8.6731739 -17.013577 119.65086 0
8.9415245 -15.879785 -2.1956041 0 250 0 7.9989743 -17.332422 121.56181 0
9.0636787 -15.785768 -2.1728599 0 250 0 7.2362328 -17.175413 121.50269 0
9.208827 -15.625824 -2.1622488 0 250 0 7.7351055 -18.736309 123.77381 0
9.3599548 -15.463233 -2.1795492 0 250 0 5.6648059 -18.015984 122.5711 0
9.4157896 -15.414045 -2.1681142 0 250 0 4.5754142 -17.977243 122.36614 0
9.4949446 -15.306386 -2.1567841 0 250 0 6.1735668 -16.377228 120.12867 0
9.5987644 -15.118072 -2.1537776 0 250 0 8.2806425 -16.504583 122.19682 0
9.7091389 -14.917717 -2.1507449 0 250 0 7.5005274 -19.569418 128.98845 0
9.7583818 -14.863894 -2.1468401 0 250 0 7.2053361 -19.136246 132.5593 0
9.8150616 -14.743895 -2.1268997 0 250 0 4.875741 -19.000134 137.35847 0
9.9274626 -14.547709 -2.1272354 0 250 0 3.6625361 -19.302021 143.89813 0
9.9736261 -14.483773 -2.1421247 0 250 0 3.5506945 -19.137068 143.74382 0
10.014854 -14.345955 -2.1347818 0 250 0 3.6431413 -16.387028 142.61942 0
10.062406 -14.143529 -2.0846381 0 250 0 3.6047878 -15.536487 142.96947 0
10.082854 -14.073354 -2.0676827 0 250 0 4.0446067 -16.066458 144.6674 0
10.114333 -13.92773 -2.0937397 0 250 0 4.4808698 -17.710501 148.54091 0
10.140775 -13.707082 -2.090826 0 250 0 2.5149145 -19.527683 155.09203 0
10.16819 -13.507086 -2.0281963 0 250 0 0.98149818 -17.950218 163.47855 0
10.168782 -13.439055 -2.0144887 0 250 0 1.5600439 -18.375027 166.76059 0
10.193274 -13.284753 -2.0345302 0 250 0 0.94538963 -19.812412 170.4355 0
10.200489 -13.059381 -2.0168104 0 250 0 -0.56489044 -17.128584 171.59856 0
10.21469 -12.975737 -1.9983793 0 250 0 -1.945115 -17.717192 170.69614 0
10.186489 -12.837597 -1.9727621 0 250 0 1.76004 -16.149927 169.68102 0
10.157509 -12.619951 -1.9790231 0 250 0 3.1054075 -18.849316 173.94984 0
10.153581 -12.385658 -1.9775888 0 250 0 1.3841497 -21.111847 180.40417 0
10.186323 -12.29763 -1.9525259 0 250 0 -0.75116789 -20.527945 182.03255 0
10.131869 -12.155849 -1.9259741 0 250 0 -0.9458136 -19.191418 182.78867 0
10.103884 -11.915497 -1.9256936 0 250 0 -0.59422725 -21.431049 185.90225 0
10.086951 -11.838342 -1.9275098 0 250 0 -0.42687666 -20.170368 185.26747 0
10.055954 -11.683492 -1.8740066 0 250 0 -2.1271768 -19.686689 185.38277 0
9.954361 -11.444242 -1.831171 0 250 0 1.312541 -18.245186 183.13739 0
9.8942423 -11.235324 -1.8249352 0 250 0 2.976958 -19.782671 188.12437 0
9.8669586 -11.169375 -1.8083323 0 250 0 2.2737935 -20.360416 189.78958 0
9.8290081 -11.033596 -1.7689005 0 250 0 -1.6640595 -20.015064 196.67609 0
9.7661943 -10.808969 -1.6921283 0 250 0 -3.021718 -18.577568 198.57967 0
9.7443953 -10.741678 -1.6592014 0 250 0 -3.1731181 -19.354109 199.56653 0
9.7024488 -10.580546 -1.6684542 0 250 0 -3.1258833 -22.055056 199.42049 0
9.6274757 -10.377751 -1.6399311 0 250 0 -3.1669867 -21.031773 196.5462 0
9.6277323 -10.297989 -1.6181926 0 250 0 -3.9918458 -21.23118 195.09518 0
9.5583115 -10.19208 -1.6150175 0 250 0 -0.64668846 -18.743708 192.45972 0
9.4489613 -10.007966 -1.5852668 0 250 0 1.4371891 -20.846827 195.96028 0
9.3786459 -9.8091898 -1.5776281 0 250 0 -0.71173477 -20.760937 199.20306 0
9.3761692 -9.7302704 -1.5421175 0 250 0 -2.0616229 -20.26512 200.871 0
9.3177271 -9.6144381 -1.513841 0 250 0 -1.2048191 -20.177549 201.18271 0
9.2409048 -9.4103508 -1.5050374 0 250 0 -0.47317296 -22.214809 201.1895 0
9.2246265 -9.3384399 -1.510226 0 250 0 -0.19895186 -21.700378 200.45969 0
9.1619644 -9.2149363 -1.4806511 0 250 0 -1.9215757 -21.278318 198.19815 0
9.0619469 -9.037528 -1.4446377 0 250 0 2.4349372 -19.154779 192.9592 0
9.0236645 -8.972682 -1.4304982 0 250 0 3.2107751 -19.468683 192.81042 0
8.926156 -8.8682079 -1.4262377 0 250 0 4.6101804 -20.246401 195.11076 0
8.8308344 -8.6368313 -1.4068369 0 250 0 0.68884587 -21.420963 199.16039 0
8.7281761 -8.4559622 -1.3530681 0 250 0 0.32720241 -20.241072 199.81583 0
8.6932869 -8.3895397 -1.3420584 0 250 0 0.770634 -20.57025 200.11322 0
8.6102304 -8.2648878 -1.3450375 0 250 0 2.6556015 -20.875463 199.06548 0
8.4930964 -8.0848141 -1.3077714 0 250 0 0.67153233 -21.403255 197.36194 0
8.4575253 -8.0372486 -1.3143333 0 250 0 -0.086307645 -21.081425 195.1819 0
8.3633595 -7.9406371 -1.2845967 0 250 0 3.3135777 -19.460302 193.98959 0
8.2172661 -7.7700477 -1.2704729 0 250 0 4.4125252 -21.143534 195.18541 0
8.1043882 -7.5819368 -1.2450814 0 250 0 1.1124283 -20.434086 199.96556 0
8.0606279 -7.5283799 -1.2299906 0 250 0 -0.7885989 -20.818695 199.4743 0
7.9598956 -7.4339604 -1.2027665 0 250 0 0.78260207 -19.445797 200.59833 0
7.8191357 -7.2588906 -1.2056518 0 250 0 1.3906801 -21.078394 199.58148 0
7.7713652 -7.2057357 -1.199595 0 250 0 0.48234114 -20.147427 198.53677 0
7.6757088 -7.1009188 -1.1608176 0 250 0 0.3068983 -20.075468 196.87683 0
7.5228486 -6.9609694 -1.1430514 0 250 0 3.1063206 -20.355553 194.93262 0
7.4636707 -6.9223161 -1.1497959 0 250 0 4.1506567 -20.016254 194.88596 0
7.3685632 -6.7977839 -1.1453565 0 250 0 3.249146 -21.185516 197.85954 0
0 0 0 1 0 0 0 1 0 0 0 1 0 0 0 0 0 525 1 0 0
