ply
format ascii 1.0
comment PCL generated
element vertex 525
property float x
property float y
property float z
property uchar red
property uchar green
property uchar blue
property float nx
property float ny
property float nz
property float curvature
element camera 1
property float view_px
property float view_py
property float view_pz
property float x_axisx
property float x_axisy
property float x_axisz
property float y_axisx
property float y_axisy
property float y_axisz
property float z_axisx
property float z_axisy
property float z_axisz
property float focal
property float scalex
property float scaley
property float centerx
property float centery
property int viewportx
property int viewporty
property float k1
property float k2
end_header
1.4054376 -1.6563333 -0.13384464 0 250 0 0.14519654 -10.516819 113.8144 0
1.399454 -1.6398054 -0.13048406 0 250 0 0.48365676 -10.460608 120.6618 0
1.3865973 -1.6102482 -0.13128327 0 250 0 1.2252271 -10.330704 123.58707 0
1.3788904 -1.5931427 -0.13211846 0 250 0 1.722573 -10.2027 125.43568 0
1.3668739 -1.5574125 -0.1326059 0 250 0 2.0343008 -9.8990088 127.08945 0
1.3380569 -1.4915757 -0.1142942 0 250 0 2.0648179 -9.8940697 129.37576 0
1.3262612 -1.4661529 -0.10486796 0 250 0 2.0535326 -10.327842 130.36282 0
1.3094053 -1.4204822 -0.092279188 0 250 0 3.0093236 -11.766047 131.19699 0
1.2823703 -1.3644997 -0.088455878 0 250 0 3.6076334 -12.597138 130.97131 0
1.2384325 -1.2933732 -0.099706091 0 250 0 3.9310839 -11.340027 129.82195 0
1.2143607 -1.2592716 -0.099581815 0 250 0 3.8404317 -10.846878 129.23862 0
1.162791 -1.1937606 -0.094270125 0 250 0 2.8193212 -11.270721 128.44597 0
1.07244 -1.1062968 -0.053100642 0 250 0 2.8491168 -11.607131 126.27964 0
1.0550514 -1.0772041 -0.056299865 0 250 0 2.5014908 -12.457808 125.80852 0
0.99965674 -1.0416869 -0.059212681 0 250 0 2.4365687 -10.818366 125.78088 0
0.91862899 -0.93819994 -0.066567563 0 250 0 2.4913404 -8.5058746 127.3727 0
0.82732898 -0.80111724 -0.05753278 0 250 0 1.6155987 -10.224295 129.82977 0
0.77935463 -0.76822275 -0.04813081 0 250 0 1.2423254 -9.8019018 130.54108 0
0.72691834 -0.68409932 -0.02340281 0 250 0 0.63856894 -10.941836 133.12921 0
0.62839657 -0.58946568 -0.012272794 0 250 0 2.8296463 -10.389445 135.51672 0
0.60011363 -0.5344708 -0.019994762 0 250 0 2.5402029 -10.064911 135.92493 0
0.51341122 -0.45862392 -0.0037599909 0 250 0 1.5293005 -10.390205 135.13799 0
0.39541715 -0.34290901 0.034877993 0 250 0 1.058238 -10.222553 133.22032 0
0.3594965 -0.31644157 0.029662007 0 250 0 1.1252292 -11.38019 132.56642 0
0.28575572 -0.24333271 0.017028006 0 250 0 2.2958982 -9.594943 132.27191 0
0.16617979 -0.11895516 0.014193701 0 250 0 2.5934305 -9.4834518 134.30476 0
0.039068229 0.018991938 0.053088933 0 250 0 2.1928163 -8.6309023 135.7921 0
0.0080361022 0.082411639 0.068809025 0 250 0 1.2280459 -9.8563833 137.09756 0
-0.058810264 0.13779758 0.075649284 0 250 0 2.6363287 -10.187531 137.15198 0
-0.16375583 0.28505394 0.05692419 0 250 0 3.4928329 -10.39601 136.75342 0
-0.21841817 0.32636353 0.077509969 0 250 0 3.5423613 -10.154634 135.86574 0
-0.29227018 0.4384723 0.075709395 0 250 0 1.8470906 -12.021167 134.38461 0
-0.42078614 0.53050888 0.10354794 0 250 0 3.3198738 -12.580426 130.92224 0
-0.55661094 0.64156568 0.10179406 0 250 0 4.9278841 -10.665491 132.41466 0
-0.58870846 0.71603358 0.10494063 0 250 0 4.2110934 -11.548851 133.19264 0
-0.66406423 0.80833012 0.067575194 0 250 0 2.6849511 -11.322794 133.00708 0
-0.79577065 0.99245244 0.11942138 0 250 0 1.1712224 -10.975558 135.27402 0
-0.86008579 0.99267948 0.13274141 0 250 0 2.1918042 -10.51729 134.93916 0
-0.92058945 1.1356343 0.14535618 0 250 0 4.2513671 -11.630302 136.22778 0
-1.0579947 1.2678167 0.13158798 0 250 0 2.5591106 -11.183001 135.34514 0
-1.0846071 1.3216654 0.13470815 0 250 0 0.76315868 -11.898685 134.45895 0
-1.1687155 1.3796067 0.16791593 0 250 0 2.0650749 -11.871142 131.42632 0
-1.2835736 1.4919025 0.13910846 0 250 0 2.8303707 -10.885158 129.63 0
-1.4408369 1.6178238 0.15205482 0 250 0 2.3757799 -11.231605 130.73599 0
-1.4752756 1.6773182 0.14393957 0 250 0 1.7787244 -10.713114 131.21194 0
-1.5857577 1.7704341 0.18964562 0 250 0 1.0014154 -10.197586 133.30957 0
-1.7086781 1.9032215 0.2423958 0 250 0 1.2154391 -10.963406 135.30917 0
-1.7444841 1.9642216 0.25113785 0 250 0 1.5328097 -12.032229 136.08012 0
-1.8167019 2.068095 0.23235193 0 250 0 1.7631053 -12.863627 134.9305 0
-1.9496557 2.177352 0.2294694 0 250 0 0.016328868 -12.131688 131.49942 0
-2.0012014 2.2152479 0.25468209 0 250 0 0.76199883 -11.642308 130.68875 0
-2.085166 2.2740302 0.24188757 0 250 0 2.1851585 -11.277403 129.71463 0
-2.2309046 2.3892267 0.26023597 0 250 0 2.8984489 -10.802941 132.30655 0
-2.3537917 2.5125308 0.2609354 0 250 0 2.0809801 -10.60342 134.52876 0
-2.4135997 2.552933 0.28708407 0 250 0 2.3402872 -10.459945 136.47874 0
-2.4606745 2.6674826 0.29425037 0 250 0 0.48977941 -11.010137 139.09975 0
-2.5955319 2.7877705 0.31056324 0 250 0 1.911966 -10.853097 139.25102 0
-2.6356239 2.83776 0.29805389 0 250 0 1.4762539 -11.204421 138.78488 0
-2.7237024 2.914474 0.28158784 0 250 0 0.23946044 -9.8870354 135.93394 0
-2.8569732 3.0243847 0.32654828 0 250 0 1.6950817 -9.6569719 133.04263 0
-3.0089569 3.1500773 0.33817574 0 250 0 3.5258169 -9.0441198 132.60458 0
-3.0611453 3.2014573 0.33860993 0 250 0 2.8388546 -9.3013229 133.79617 0
-3.1436448 3.3263547 0.32604364 0 250 0 0.70287716 -11.222774 135.49396 0
-3.2787285 3.4199533 0.33809862 0 250 0 -2.5955336 -11.645626 137.61443 0
-3.3253603 3.4501133 0.34572423 0 250 0 -1.9402732 -11.206565 137.37482 0
-3.4229081 3.5468063 0.3715663 0 250 0 -0.50778955 -11.760781 138.27757 0
-3.5321167 3.6946967 0.33813974 0 250 0 -0.19941349 -12.292691 135.37991 0
-3.674279 3.7508178 0.35522273 0 250 0 0.98001176 -10.539162 129.80234 0
-3.7387385 3.7868118 0.37433392 0 250 0 2.9364972 -9.6031866 129.80823 0
-3.8250804 3.8747571 0.34809235 0 250 0 3.3187532 -10.081759 131.10321 0
-3.9919655 4.0070577 0.34327367 0 250 0 2.4732141 -11.318575 136.79256 0
-4.0452871 4.0386539 0.36802796 0 250 0 2.6272714 -11.565308 138.73645 0
-4.1134095 4.1339588 0.34140706 0 250 0 -0.023118906 -11.285526 138.49689 0
-4.2419548 4.2517118 0.36123204 0 250 0 0.83387858 -11.786788 138.84389 0
-4.2836604 4.2915378 0.33684707 0 250 0 0.98177409 -11.710538 137.77859 0
-4.3698754 4.4063773 0.3407172 0 250 0 0.49487409 -11.742144 135.8662 0
-4.5089931 4.4556999 0.37163219 0 250 0 1.3047987 -10.292037 132.10037 0
-4.6375928 4.5560989 0.35997754 0 250 0 2.3693836 -10.813185 135.94052 0
-4.6892171 4.6227627 0.37086225 0 250 0 2.1421208 -11.205722 137.88138 0
-4.7744784 4.7226653 0.36385128 0 250 0 1.3371526 -12.721166 140.08061 0
-4.899509 4.8489656 0.38077497 0 250 0 -0.5928067 -13.232324 139.61127 0
-4.909987 4.8888812 0.38792402 0 250 0 0.77470118 -11.986672 139.29503 0
-5.0116048 5.026463 0.38829517 0 250 0 1.1065801 -13.318012 138.78899 0
-5.1441679 5.1540165 0.38311604 0 250 0 0.58531851 -12.663945 136.12 0
-5.2583542 5.2085543 0.40499142 0 250 0 1.1451604 -12.135014 133.76126 0
-5.3091803 5.2495022 0.41962799 0 250 0 2.5123279 -11.639338 134.07863 0
-5.3776226 5.3111749 0.40275988 0 250 0 2.432354 -11.019161 135.94319 0
-5.5257072 5.4087367 0.39829707 0 250 0 1.6133213 -12.891426 144.4761 0
-5.5765028 5.4582276 0.40886402 0 250 0 -0.38572732 -11.861164 147.22165 0
-5.6738863 5.5554857 0.42054799 0 250 0 -2.271035 -11.792702 152.40765 0
-5.8549142 5.6488771 0.43528599 0 250 0 -2.5475519 -10.612649 156.86316 0
-5.8994894 5.6725774 0.42309615 0 250 0 -2.9434226 -11.533023 158.03328 0
-6.0103607 5.7217584 0.41748095 0 250 0 -2.9822302 -11.613283 159.92903 0
-6.1700344 5.8189077 0.42499179 0 250 0 -4.7079463 -12.548965 162.53526 0
-6.3389378 5.8524861 0.43638638 0 250 0 -1.1133236 -10.724038 163.77321 0
-6.3833284 5.8456926 0.41910508 0 250 0 -1.2868117 -10.260822 165.39455 0
-6.5563221 5.8708229 0.4304221 0 250 0 -1.3777208 -10.431039 171.81046 0
-6.729094 5.9038858 0.41687253 0 250 0 -2.9413979 -9.2747145 179.8923 0
-6.8136272 5.9117889 0.42387921 0 250 0 -4.6502762 -9.794673 181.36401 0
-6.9197464 5.8995118 0.42342132 0 250 0 -2.854702 -8.257268 185.14917 0
-7.1199374 5.9329724 0.3974815 0 250 0 -2.3876798 -8.8312883 186.1698 0
-7.3096223 5.9502563 0.38926622 0 250 0 -4.4744353 -9.6021137 186.81145 0
-7.3507905 5.9103026 0.39431894 0 250 0 -3.7882555 -8.0682783 186.23141 0
-7.4863591 5.9079103 0.4007853 0 250 0 -1.7755865 -7.5326414 189.27394 0
-7.691679 5.8308649 0.38414267 0 250 0 -1.6450175 -8.0888433 197.6102 0
-7.7553663 5.8323798 0.36313221 0 250 0 -3.149035 -7.499217 197.29616 0
-7.9049816 5.8173318 0.37763709 0 250 0 -4.7393417 -5.7699771 201.96626 0
-8.0939941 5.7485657 0.39221659 0 250 0 -3.1615665 -4.890132 206.74515 0
-8.1308537 5.7225642 0.37268707 0 250 0 -3.7241199 -6.2197728 207.22876 0
-8.2287359 5.6737046 0.3624666 0 250 0 -2.8776553 -5.717361 206.42293 0
-8.2477732 5.5699391 0.35879076 0 250 0 -4.1954908 -5.9111385 204.93196 0
-8.4402609 5.4883018 0.37868625 0 250 0 -1.3851084 -6.1788559 207.00945 0
-8.500371 5.4467959 0.36752251 0 250 0 -1.7685058 -7.2170339 208.52477 0
-8.6227713 5.368351 0.35285613 0 250 0 -3.5329833 -9.5014563 211.33705 0
-8.7110481 5.2535815 0.35224003 0 250 0 -4.3331728 -7.2186131 214.64096 0
-8.7600327 5.2215571 0.35889047 0 250 0 -2.8843391 -4.9289761 216.33539 0
-8.886693 5.1539936 0.36202791 0 250 0 -2.2971418 -7.0354977 217.86287 0
-9.0475664 5.046957 0.3750926 0 250 0 -3.5339406 -3.4584072 214.63733 0
-9.0961943 5.011075 0.4007318 0 250 0 -3.4947462 -4.0612297 213.77016 0
-9.1483765 4.9364271 0.40022278 0 250 0 -2.6598117 -2.3269274 212.02202 0
-9.2571154 4.8243365 0.40323898 0 250 0 -1.3290216 -2.9212892 214.16403 0
-9.3760176 4.7068453 0.41520673 0 250 0 -2.7049882 -5.2264719 218.18953 0
-9.4153528 4.6750145 0.42050052 0 250 0 -2.0191853 -5.1319799 219.95557 0
-9.4831524 4.616807 0.42175359 0 250 0 -3.967247 -5.2101245 219.24052 0
-9.6280346 4.5402594 0.42614821 0 250 0 -3.3448901 -4.7457585 219.42117 0
-9.6437426 4.4816499 0.39882722 0 250 0 -3.4595861 -5.087265 218.51782 0
-9.7471256 4.3913975 0.39811236 0 250 0 -2.7004378 -6.8660507 218.25519 0
-9.8642788 4.2668967 0.35923284 0 250 0 -2.8601069 -6.6043429 215.85356 0
-9.9830046 4.1251416 0.35106078 0 250 0 -1.3829342 -6.2208672 217.9126 0
-10.048229 4.0881433 0.34782577 0 250 0 -1.3538848 -6.4469442 218.66251 0
-10.142184 3.9949052 0.34575215 0 250 0 -1.3784837 -6.1816764 220.74937 0
-10.291018 3.8910894 0.3536306 0 250 0 -2.406347 -5.3263092 220.02228 0
-10.324497 3.8442438 0.35816804 0 250 0 -1.1186391 -4.0691504 220.46245 0
-10.421382 3.780257 0.35549635 0 250 0 -1.7806889 -5.0265026 221.4998 0
-10.543543 3.6522121 0.33732873 0 250 0 -2.0681286 -4.3420825 219.74719 0
-10.572527 3.6082957 0.33245829 0 250 0 -2.9155123 -3.8816569 218.88225 0
-10.646358 3.5205183 0.34748295 0 250 0 -2.5538583 -2.9710209 216.9066 0
-10.750925 3.386374 0.35047051 0 250 0 -0.55573356 -2.9585586 217.25056 0
-10.86892 3.2402952 0.33345398 0 250 0 0.01120379 -4.9062386 221.79332 0
-10.929301 3.1837943 0.3518123 0 250 0 -0.60161823 -5.1126938 224.10229 0
-11.036138 3.1011882 0.33849448 0 250 0 -2.2760718 -6.0318809 225.79466 0
-11.16533 2.9697392 0.35018918 0 250 0 -1.0384719 -5.1685677 226.03854 0
-11.207331 2.9332197 0.32647514 0 250 0 -1.0382651 -5.7477713 225.7831 0
-11.288019 2.8386092 0.31828061 0 250 0 -0.44094285 -5.3680339 225.37573 0
-11.407835 2.6862702 0.33181024 0 250 0 -1.7931136 -5.591557 225.40112 0
-11.489598 2.5289874 0.32608554 0 250 0 -0.069361746 -5.8113112 226.82239 0
-11.507727 2.4698324 0.30991352 0 250 0 -0.28450382 -5.1652036 227.86911 0
-11.567042 2.3403051 0.30975845 0 250 0 -0.69821548 -5.3622274 233.34431 0
-11.638074 2.1496129 0.28588513 0 250 0 -2.1264853 -4.7007337 241.65762 0
-11.689757 2.0979707 0.29250017 0 250 0 -2.6874762 -4.4724135 244.89307 0
-11.707918 1.9749551 0.29512128 0 250 0 -1.4584427 -3.4708154 248.55112 0
-11.783149 1.7837222 0.2815038 0 250 0 -2.0090251 -6.3609419 252.78812 0
-11.823643 1.5948049 0.27426016 0 250 0 -3.6582842 -6.4076285 253.43382 0
-11.838595 1.5407248 0.26872694 0 250 0 -3.2898281 -5.8578339 252.64507 0
-11.831247 1.4142264 0.2875506 0 250 0 -1.3276266 -5.0923467 253.2496 0
-11.838035 1.2321222 0.245997 0 250 0 -0.41318655 -5.4610391 257.74582 0
-11.834936 1.1718662 0.22996537 0 250 0 0.26522636 -5.0848632 260.33609 0
-11.828625 1.0413789 0.23480257 0 250 0 0.30543563 -3.0971763 265.35669 0
-11.831025 0.85338914 0.24903436 0 250 0 0.24128878 -3.0083058 272.85791 0
-11.831189 0.66053188 0.23117191 0 250 0 0.89954793 -3.7468929 276.02448 0
-11.828983 0.59445143 0.21464954 0 250 0 0.75318122 -3.523706 275.89813 0
-11.812712 0.4596037 0.21210329 0 250 0 -2.2324359 -3.3635063 276.00427 0
-11.799298 0.26740626 0.23024456 0 250 0 -1.58486 -3.1867461 274.18127 0
-11.783517 0.20896822 0.22205952 0 250 0 -0.52693629 -3.0452363 274.00967 0
-11.759698 0.084334128 0.206126 0 250 0 1.6638875 -2.5795436 275.86401 0
-11.743528 -0.11811671 0.16876659 0 250 0 1.0370213 -2.514596 280.50403 0
-11.732062 -0.18914084 0.17842451 0 250 0 1.4257861 -1.8756678 282.41162 0
-11.750086 -0.32522696 0.18566276 0 250 0 -0.57436305 -2.6303396 285.27634 0
-11.720598 -0.50717235 0.19251196 0 250 0 1.745144 -3.3115451 286.54474 0
-11.689603 -0.69004053 0.15492564 0 250 0 0.22101471 -2.8852706 283.763 0
-11.662874 -0.7488777 0.16047673 0 250 0 -1.2731143 -3.7407067 283.254 0
-11.682343 -0.8710379 0.14572775 0 250 0 -2.3727248 -4.4474316 280.58435 0
-11.596747 -1.0370485 0.16088553 0 250 0 -0.82976389 -3.6093004 279.02679 0
-11.576785 -1.093749 0.15110928 0 250 0 -0.48750082 -4.1308551 280.03571 0
-11.565013 -1.2174487 0.12926866 0 250 0 0.78531837 -4.6607137 280.62616 0
-11.541761 -1.4037056 0.12761453 0 250 0 1.101877 -2.7300448 283.01318 0
-11.536715 -1.4599556 0.12856132 0 250 0 -0.049489159 -2.1142039 281.427 0
-11.50899 -1.5863142 0.15310976 0 250 0 1.559003 -1.1533272 279.87045 0
-11.503315 -1.7911744 0.11154234 0 250 0 -0.46729437 -3.3260541 276.71518 0
-11.468779 -1.9908386 0.13613269 0 250 0 -3.9851348 -1.5065279 271.97626 0
-11.472973 -2.0582159 0.17714974 0 250 0 -4.4515357 -2.1797106 270.26767 0
-11.459778 -2.1613362 0.17445749 0 250 0 -3.5303428 -1.5992125 266.92181 0
-11.443583 -2.3441873 0.16595353 0 250 0 0.068122171 -1.8965185 266.53726 0
-11.469195 -2.4166844 0.16157827 0 250 0 0.35398668 -2.3438232 266.99857 0
-11.472789 -2.5526175 0.1541398 0 250 0 -1.4866946 -3.4461608 266.61639 0
-11.486939 -2.7398286 0.17298526 0 250 0 -2.9282432 -3.9596086 268.1044 0
-11.478093 -2.9328952 0.15373939 0 250 0 -1.3516734 -3.820518 269.237 0
-11.485879 -3.0018559 0.14024569 0 250 0 -1.7027103 -3.9531047 267.93744 0
-11.480071 -3.1388669 0.1339072 0 250 0 -2.7830482 -5.7399721 264.38715 0
-11.444122 -3.3302281 0.12965341 0 250 0 -1.0917097 -3.727313 258.51144 0
-11.453523 -3.39468 0.1297577 0 250 0 -0.20662634 -3.1026397 258.11127 0
-11.42809 -3.525836 0.093823478 0 250 0 -0.50089192 -2.4793777 258.43417 0
-11.422198 -3.7511499 0.07567662 0 250 0 -1.8672588 -3.453732 261.41513 0
-11.391746 -3.8193996 0.080423713 0 250 0 -0.77002716 -2.5350907 263.96826 0
-11.40546 -3.9558282 0.08991497 0 250 0 -1.1664323 -2.605515 268.54337 0
-11.402101 -4.164135 0.077393152 0 250 0 1.8391408 -2.0845549 270.54147 0
-11.376885 -4.3673835 0.028658796 0 250 0 -1.6530145 -1.8990973 266.19846 0
-11.384385 -4.4399228 0.043399248 0 250 0 -1.7760514 -1.103109 265.35367 0
-11.351226 -4.5633574 0.05024505 0 250 0 -0.99640423 -1.1213013 261.73645 0
-11.32088 -4.7553792 0.0076505449 0 250 0 0.45288283 -1.0510572 262.2688 0
-11.312371 -4.8328948 0.0076796864 0 250 0 -0.064820014 -1.1084476 263.35663 0
-11.291549 -4.9797344 -0.0020630318 0 250 0 -0.70013076 -1.7967659 265.20685 0
-11.27412 -5.1833034 0.014116861 0 250 0 -1.3269064 -3.2589002 270.03787 0
-11.266063 -5.3815527 -0.0065120724 0 250 0 -0.35580894 -2.5778716 270.88257 0
-11.260369 -5.4454365 -0.034285635 0 250 0 -0.51954675 -2.4606121 270.58612 0
-11.257943 -5.5766602 -0.063448824 0 250 0 -3.2165468 -1.7803379 267.62094 0
-11.249563 -5.7669115 -0.065406211 0 250 0 -3.2122605 -0.21849957 260.92969 0
-11.239369 -5.8306108 -0.068085186 0 250 0 -1.8155699 0.077528216 259.87589 0
-11.230707 -5.9560151 -0.11585647 0 250 0 -1.6714125 1.2870965 258.59921 0
-11.213314 -6.1876512 -0.1291066 0 250 0 -2.6470487 0.29563037 262.13501 0
-11.225904 -6.3907504 -0.10458753 0 250 0 -1.5763774 -0.64924967 266.34064 0
-11.209536 -6.4450302 -0.11249851 0 250 0 -0.09728241 -0.46278438 266.79318 0
-11.23111 -6.5755329 -0.11761364 0 250 0 0.36464855 -0.7114982 268.14032 0
-11.248132 -6.7760806 -0.17719497 0 250 0 -3.2266707 -1.4644159 265.03113 0
-11.207042 -6.8521395 -0.17513299 0 250 0 -3.6739035 -1.6595985 263.00266 0
-11.241059 -6.9838753 -0.16886091 0 250 0 -3.5510561 -2.3759193 258.46472 0
-11.229997 -7.179029 -0.17793803 0 250 0 0.2528477 -2.5447681 257.69492 0
-11.220487 -7.2461686 -0.19928466 0 250 0 0.87335485 -2.5366294 258.68649 0
-11.258742 -7.3944597 -0.247127 0 250 0 1.6724144 -2.870949 261.88974 0
-11.276129 -7.6155729 -0.21718988 0 250 0 -0.77094513 -2.3898904 266.60605 0
-11.304318 -7.7890229 -0.2204679 0 250 0 1.6155173 -3.2788661 269.33398 0
-11.323596 -7.8500905 -0.24810103 0 250 0 1.0539223 -3.2778625 268.59021 0
-11.34698 -7.9851518 -0.26642942 0 250 0 -1.2636853 -1.1494775 265.46573 0
-11.359344 -8.1776609 -0.24946119 0 250 0 -2.763628 -2.471133 261.84326 0
-11.34471 -8.2345533 -0.24900591 0 250 0 -3.0471597 -1.7505374 260.46973 0
-11.345471 -8.3510695 -0.24676327 0 250 0 -1.0142417 -1.6264353 260.90189 0
-11.373133 -8.5260038 -0.27732706 0 250 0 -0.70765662 -1.3851513 263.68182 0
-11.414025 -8.5834522 -0.29822642 0 250 0 -1.1484393 -2.0212481 264.9931 0
-11.440454 -8.6946507 -0.29449138 0 250 0 -1.3294821 -1.7912409 266.73764 0
-11.504541 -8.842494 -0.26895398 0 250 0 -1.2865127 -2.2881215 266.31427 0
-11.580215 -8.9784374 -0.30390406 0 250 0 -1.5907856 -1.9665954 263.77264 0
-11.59392 -9.0331593 -0.30751291 0 250 0 -2.118964 -1.3566769 262.09781 0
-11.608088 -9.1419401 -0.32425648 0 250 0 -3.0231731 -1.1130069 260.2843 0
-11.639504 -9.3126593 -0.29326478 0 250 0 -3.4654701 -1.5873214 255.67931 0
-11.64526 -9.3533354 -0.29598543 0 250 0 -1.913233 -2.4040871 255.85251 0
-11.649493 -9.4339628 -0.32149819 0 250 0 -1.2562947 -1.9696124 255.66373 0
-11.665628 -9.6001472 -0.34138983 0 250 0 -0.63601667 -0.73862249 259.56094 0
-11.681404 -9.7714958 -0.34332722 0 250 0 -0.75580466 -2.1403432 264.43457 0
-11.71758 -9.8315248 -0.33815041 0 250 0 -0.69674766 -2.5162711 266.63788 0
-11.728416 -9.9301519 -0.34210086 0 250 0 0.28182542 -2.8503733 267.81366 0
-11.761625 -10.093671 -0.38699311 0 250 0 -0.50582284 -1.7722169 268.01642 0
-11.768842 -10.160711 -0.39597872 0 250 0 -1.0352501 -1.5422425 267.54324 0
-11.783551 -10.283869 -0.41701499 0 250 0 -4.4601483 -3.038825 265.07391 0
-11.776854 -10.460613 -0.4035899 0 250 0 -3.1848779 -2.7214422 261.30438 0
-11.774742 -10.515126 -0.40811506 0 250 0 -2.1222312 -1.8081369 261.01755 0
-11.789939 -10.636496 -0.43267354 0 250 0 -1.285477 -1.8700342 260.64047 0
-11.799817 -10.849252 -0.45906392 0 250 0 -1.3930302 -4.1902499 263.38486 0
-11.868876 -11.059957 -0.44617119 0 250 0 -3.2385924 -6.3898253 268.61844 0
-11.869451 -11.111744 -0.44278303 0 250 0 -3.1291721 -6.7043858 267.95096 0
-11.877316 -11.234298 -0.44448873 0 250 0 -1.5379851 -6.6124949 269.03656 0
-11.918011 -11.413548 -0.51134634 0 250 0 -2.9850595 -5.6559792 266.58636 0
-11.90885 -11.483301 -0.51503366 0 250 0 -4.6425266 -5.1483064 265.26785 0
-11.936748 -11.622561 -0.49001116 0 250 0 -4.3787665 -5.7946916 264.0683 0
-11.93596 -11.797135 -0.50135958 0 250 0 -1.2897236 -5.1374059 259.68335 0
-11.925824 -11.985796 -0.5486508 0 250 0 -1.1104712 -4.8635201 261.50061 0
-11.931106 -12.045874 -0.57191074 0 250 0 -0.98372817 -5.7574821 262.95035 0
-11.931271 -12.166651 -0.58500558 0 250 0 -1.0522201 -4.7712092 265.50079 0
-11.960896 -12.333331 -0.59531969 0 250 0 -1.6271005 -2.1760266 266.26865 0
-11.95999 -12.410961 -0.57386839 0 250 0 -0.45942035 -1.4865659 267.30136 0
-11.9814 -12.536296 -0.6171326 0 250 0 -1.2971934 -4.1846948 267.5368 0
-11.966078 -12.726593 -0.65100384 0 250 0 -3.4849944 -2.859252 265.16043 0
-11.977312 -12.792242 -0.64300352 0 250 0 -2.7241418 -2.1066957 264.46344 0
-11.980484 -12.916676 -0.6435169 0 250 0 -1.1120046 -2.2849419 261.88242 0
-11.983666 -13.108675 -0.6821093 0 250 0 -0.11520392 -1.6644169 262.41528 0
-11.978494 -13.293765 -0.70376331 0 250 0 -1.6095928 -2.1520884 262.9425 0
-11.978827 -13.35606 -0.70150197 0 250 0 -1.3801954 -1.303609 266.13147 0
-11.995557 -13.487011 -0.69855803 0 250 0 -2.8808303 -1.2845652 267.47266 0
-11.999898 -13.69259 -0.7228635 0 250 0 -1.1273123 -1.7555938 270.34622 0
-12.013258 -13.759171 -0.74992377 0 250 0 -2.0616105 -2.1095626 269.06766 0
-11.983385 -13.890401 -0.75829113 0 250 0 -4.0059881 -0.21214284 265.79166 0
-11.986409 -14.084771 -0.74747396 0 250 0 -2.6271439 -0.28668439 261.77319 0
-11.983447 -14.284803 -0.77260631 0 250 0 -1.814744 -0.39981499 261.96124 0
-11.994207 -14.35365 -0.78941518 0 250 0 -1.7919904 -1.6558355 262.96609 0
-11.983551 -14.490274 -0.78539008 0 250 0 -2.1599369 -0.47176698 263.94958 0
-12.002748 -14.68369 -0.77513438 0 250 0 -1.6349574 -1.6104944 266.22638 0
-12.006963 -14.758948 -0.76851946 0 250 0 -1.0446504 -1.5635511 267.10547 0
-12.020192 -14.885098 -0.82092637 0 250 0 -1.6787099 -3.2997537 267.91644 0
-12.014331 -15.098625 -0.83427233 0 250 0 -3.0418661 -0.88131642 263.6225 0
-12.034781 -15.167421 -0.83496821 0 250 0 -3.1784027 -0.81310773 262.83716 0
-12.025048 -15.28752 -0.83459288 0 250 0 -2.7140694 -0.2742939 260.34546 0
-12.010488 -15.510793 -0.86012793 0 250 0 -2.5224109 -1.140336 263.73471 0
-11.990368 -15.700784 -0.88304073 0 250 0 -3.0928531 -1.4858394 273.49219 0
-11.994773 -15.797786 -0.8849709 0 250 0 -4.9950476 -1.6774126 276.71188 0
-11.974463 -15.910828 -0.89809299 0 250 0 -3.8319676 0.26809269 279.5928 0
-11.952848 -16.127729 -0.95780903 0 250 0 -4.1762385 -1.0112563 282.59982 0
-11.933026 -16.199141 -0.95714164 0 250 0 -4.4343939 -0.79884183 282.30887 0
-11.884645 -16.319328 -0.95706207 0 250 0 -4.0246806 -0.74736822 283.71698 0
-11.810933 -16.495831 -0.94406235 0 250 0 -1.3341445 -0.75801569 286.31421 0
-11.795357 -16.562614 -0.96182173 0 250 0 -0.74914908 -1.3588085 287.64905 0
-11.720794 -16.707949 -0.99219155 0 250 0 1.1222817 -1.0849814 290.78519 0
-11.606104 -16.873236 -1.0160344 0 250 0 1.9878324 -2.8015528 300.25455 0
-11.524098 -17.047777 -1.0350021 0 250 0 0.2749809 -0.27840176 304.71051 0
-11.484073 -17.188385 -1.0357906 0 250 0 2.1502523 0.20837057 307.54431 0
-11.421247 -17.31184 -1.0851486 0 250 0 1.3211204 -2.1606901 309.68021 0
-11.298756 -17.496454 -1.1028174 0 250 0 0.7554723 -2.12256 308.51791 0
-11.278431 -17.564743 -1.1098802 0 250 0 -0.070844054 -2.3264084 307.45804 0
-11.172617 -17.651287 -1.0984395 0 250 0 1.7762859 -1.0828115 306.3876 0
-11.041787 -17.812395 -1.16847 0 250 0 2.8035169 -1.112208 309.28629 0
-10.900152 -17.987869 -1.1952894 0 250 0 0.75578314 -2.4105306 313.5293 0
-10.886958 -18.081293 -1.2052684 0 250 0 0.078716844 -2.0673668 316.11847 0
-10.790465 -18.175655 -1.1912947 0 250 0 1.4868423 -1.3924546 316.54025 0
-10.665783 -18.376736 -1.2512014 0 250 0 2.7947562 -3.0694387 316.62543 0
-10.61727 -18.443989 -1.255639 0 250 0 2.334064 -2.7892275 314.80035 0
-10.505402 -18.531971 -1.2544588 0 250 0 2.7222691 -2.6739595 312.88361 0
-10.372379 -18.679585 -1.2635529 0 250 0 3.9147522 -1.2808878 309.63007 0
-10.214914 -18.829849 -1.2893616 0 250 0 5.7066755 -0.40314037 311.24612 0
-10.16475 -18.877657 -1.3102328 0 250 0 6.2681947 -1.5360634 312.6434 0
-10.061368 -19.012218 -1.3210351 0 250 0 6.2161384 -1.7677205 315.82709 0
-9.9180527 -19.156452 -1.3267449 0 250 0 5.6454735 0.11149216 316.07919 0
-9.8729887 -19.209942 -1.3350219 0 250 0 5.5629616 -0.29808575 317.16736 0
-9.7925024 -19.32629 -1.3949656 0 250 0 4.566514 0.49637088 316.00882 0
-9.612462 -19.482611 -1.3839885 0 250 0 1.4654579 0.87973523 313.16779 0
-9.5766459 -19.548008 -1.3792644 0 250 0 0.49357167 -0.69512802 311.78702 0
-9.4766588 -19.612686 -1.402424 0 250 0 3.1070213 0.81389171 310.13736 0
-9.3140917 -19.775347 -1.4185491 0 250 0 4.5938826 2.7363465 312.36923 0
-9.1521616 -19.928247 -1.4472785 0 250 0 3.9254532 -0.12624958 315.77151 0
-9.12642 -20.022045 -1.4494309 0 250 0 2.8427966 -0.39883575 317.21066 0
-9.0233879 -20.0786 -1.4378147 0 250 0 3.2605438 -0.21187443 317.57043 0
-8.9005489 -20.253403 -1.5112613 0 250 0 3.2174549 -1.2751544 318.87802 0
-8.8525858 -20.317575 -1.5264121 0 250 0 1.8568586 -0.5752123 317.22098 0
-8.7462502 -20.423101 -1.5363258 0 250 0 -0.85810697 -0.10372872 313.04016 0
-8.5996246 -20.552269 -1.5312184 0 250 0 1.3690842 1.6822367 309.07419 0
-8.4269123 -20.69314 -1.5659398 0 250 0 2.6167128 1.3265688 310.64749 0
-8.3646755 -20.74996 -1.5698999 0 250 0 3.4602079 0.077527717 312.07928 0
-8.2586527 -20.846704 -1.5953481 0 250 0 3.4819303 -0.6683054 314.93414 0
-8.1087027 -21.009842 -1.6066415 0 250 0 1.86471 -0.034166772 317.03653 0
-8.048687 -21.060068 -1.6046286 0 250 0 2.8658171 -0.10682973 317.64413 0
-7.9465928 -21.165617 -1.645968 0 250 0 2.2512474 -2.0416429 318.41953 0
-7.785398 -21.297318 -1.6950109 0 250 0 0.78684139 -1.2091837 315.25684 0
-7.7491403 -21.362272 -1.6990271 0 250 0 0.20891236 -0.46150559 313.44937 0
-7.6126366 -21.423597 -1.6896951 0 250 0 2.270668 0.75705004 311.07562 0
-7.441514 -21.557209 -1.7220097 0 250 0 4.7856832 -1.4841083 312.64456 0
-7.2808418 -21.72917 -1.7426648 0 250 0 3.0925884 -2.3500934 315.26843 0
-7.2436619 -21.816818 -1.7378085 0 250 0 1.6308657 -2.5132892 316.4234 0
-7.1401167 -21.891655 -1.740227 0 250 0 2.0623162 -2.2757175 315.72217 0
-7.0032616 -22.064129 -1.8055781 0 250 0 1.5376244 -1.7632884 315.11655 0
-6.9525094 -22.119135 -1.8236083 0 250 0 0.43383774 -1.0186375 313.936 0
-6.8280101 -22.20266 -1.8175405 0 250 0 0.13576843 0.9862023 311.17627 0
-6.6766977 -22.341724 -1.8161336 0 250 0 2.2475643 -0.20435578 309.22009 0
-6.5132251 -22.49913 -1.8495482 0 250 0 3.7446787 -0.88622439 311.01465 0
-6.4703894 -22.553898 -1.8837756 0 250 0 3.829874 -2.3767574 311.86331 0
-6.3523679 -22.651011 -1.8954871 0 250 0 4.0051718 -1.1326749 313.64386 0
-6.207943 -22.802237 -1.8870744 0 250 0 3.4624517 -0.99043441 316.98822 0
-6.1652808 -22.854338 -1.8999625 0 250 0 3.8147502 -1.2429187 317.91437 0
-6.0758047 -22.953444 -1.946758 0 250 0 2.4681652 -1.59468 317.28061 0
-5.9197192 -23.105537 -1.9810787 0 250 0 0.73137808 -2.2649443 313.18091 0
-5.8649163 -23.142279 -1.9816689 0 250 0 1.0317392 -1.4841611 311.35083 0
-5.7483554 -23.216986 -1.9732393 0 250 0 3.5907881 -0.27384847 310.42136 0
-5.5898533 -23.369619 -2.0266492 0 250 0 4.9650049 0.095577784 311.82181 0
-5.4217792 -23.527451 -2.0363042 0 250 0 5.4568901 -0.75899196 313.79584 0
-5.3986907 -23.614475 -2.0340011 0 250 0 3.6666293 -1.0710659 314.75729 0
-5.2939095 -23.691351 -2.0549612 0 250 0 4.1687551 0.85786813 313.11963 0
-5.1489902 -23.833225 -2.1197257 0 250 0 2.2745211 0.51688725 311.04208 0
-5.0875154 -23.883118 -2.1280768 0 250 0 2.5312123 0.89658451 310.11841 0
-4.9766846 -23.973925 -2.1407011 0 250 0 0.78274959 0.46607509 307.73834 0
-4.7973423 -24.083836 -2.1425526 0 250 0 2.5696726 2.2887068 306.80768 0
-4.746645 -24.126677 -2.1606109 0 250 0 3.2834361 2.1410365 307.80777 0
-4.6150451 -24.209055 -2.1915727 0 250 0 4.0965228 2.0097785 311.27975 0
-4.4319291 -24.348503 -2.2302711 0 250 0 2.4969094 1.1114695 320.18753 0
-4.2292018 -24.454 -2.2343953 0 250 0 2.2057116 2.1074023 327.202 0
-4.1622095 -24.504532 -2.2393045 0 250 0 2.110194 0.95765579 330.77271 0
-4.0461292 -24.604336 -2.2950897 0 250 0 1.6513833 -1.1141801 334.35364 0
-3.8285439 -24.706427 -2.2856743 0 250 0 0.26841736 0.021837857 333.27881 0
-3.7608786 -24.716236 -2.2938039 0 250 0 1.3179505 0.32104972 332.72937 0
-3.6149819 -24.759682 -2.2864635 0 250 0 4.0956011 -0.015742242 335.06152 0
-3.3917763 -24.814838 -2.3313096 0 250 0 5.7150745 -1.6439799 342.24869 0
-3.157877 -24.865465 -2.3145654 0 250 0 4.1333547 -2.1013432 354.05505 0
-3.081949 -24.861946 -2.3076816 0 250 0 2.5798478 -3.2730572 356.62579 0
-2.9416089 -24.873854 -2.3138702 0 250 0 5.4584746 -2.8000746 362.88846 0
-2.7105117 -24.892853 -2.3776176 0 250 0 4.9481645 -3.103548 366.86017 0
-2.6332231 -24.876621 -2.3632605 0 250 0 3.8173864 -2.1297064 367.16492 0
-2.4876912 -24.876083 -2.3631563 0 250 0 3.2692018 -1.6386018 368.55551 0
-2.2741079 -24.845633 -2.3592236 0 250 0 4.8802567 -2.0524747 371.37152 0
-2.2023396 -24.831234 -2.375658 0 250 0 5.4523697 -2.142894 372.95135 0
-2.0494304 -24.799 -2.3799803 0 250 0 5.8923769 -4.1653676 377.39371 0
-1.8070396 -24.768923 -2.3710327 0 250 0 4.2970057 -5.4605713 383.58212 0
-1.5996667 -24.70742 -2.3526955 0 250 0 6.2817993 -6.1368794 387.48413 0
-1.5313524 -24.685631 -2.3749223 0 250 0 6.7223172 -7.3193946 388.24911 0
-1.3976673 -24.637075 -2.4049067 0 250 0 5.21523 -5.9698067 388.22705 0
-1.1948739 -24.561384 -2.3917117 0 250 0 3.3300211 -3.3819754 387.75 0
-1.1283766 -24.526827 -2.3713553 0 250 0 4.1213522 -2.6503971 387.75458 0
-1.0058889 -24.457216 -2.3925257 0 250 0 5.1316361 -4.3103728 389.36981 0
-0.78739202 -24.360754 -2.4017203 0 250 0 5.9497294 -6.9138942 394.44196 0
-0.58036321 -24.271 -2.3718543 0 250 0 4.327354 -7.5821714 398.39792 0
-0.53846222 -24.226263 -2.3657093 0 250 0 4.952229 -6.8871808 399.06546 0
-0.40999117 -24.157087 -2.3510411 0 250 0 5.4096045 -8.3584881 401.20779 0
-0.23313902 -24.024231 -2.3874013 0 250 0 4.7805591 -7.8784924 399.16687 0
-0.18770322 -23.974857 -2.3739161 0 250 0 4.7242908 -7.815907 399.28049 0
-0.06383349 -23.906244 -2.3843322 0 250 0 5.1756229 -7.5640364 397.14963 0
0.094241112 -23.769312 -2.3704476 0 250 0 8.7181311 -5.5675597 396.99948 0
0.14454809 -23.714451 -2.37782 0 250 0 8.8695955 -5.9090595 398.44644 0
0.26848868 -23.618774 -2.3968978 0 250 0 7.8838482 -7.5760117 401.62885 0
0.47122112 -23.476866 -2.3670669 0 250 0 5.7255855 -5.5288253 405.94781 0
0.62475657 -23.311695 -2.3539562 0 250 0 6.4027791 -7.3212328 407.12296 0
0.67710716 -23.255463 -2.375165 0 250 0 6.5435553 -8.1960869 407.35815 0
0.78726912 -23.141014 -2.3912852 0 250 0 5.458756 -7.7515216 405.24957 0
0.92566383 -22.98929 -2.3781426 0 250 0 5.3431048 -5.1848588 401.70517 0
0.96751177 -22.937572 -2.3661582 0 250 0 7.1950912 -4.1077189 401.7121 0
1.0712515 -22.841047 -2.3791258 0 250 0 8.2817059 -4.3411183 402.07709 0
1.2602057 -22.685223 -2.3922513 0 250 0 7.8186779 -5.3153806 402.81631 0
1.4468048 -22.543062 -2.3485546 0 250 0 5.0934486 -7.0300064 404.17004 0
1.4840682 -22.488592 -2.3455629 0 250 0 6.0716033 -6.568048 404.60855 0
1.5988901 -22.393452 -2.3576183 0 250 0 6.3382578 -7.3989363 405.71008 0
1.7651691 -22.221527 -2.3863149 0 250 0 4.7620463 -4.2112198 403.47607 0
1.8338648 -22.169424 -2.3666401 0 250 0 4.8747177 -3.8862236 402.78418 0
1.9183904 -22.04509 -2.3437164 0 250 0 6.3065038 -3.0242927 399.06491 0
2.0944297 -21.899792 -2.3597343 0 250 0 9.4890804 -4.7202015 399.36816 0
2.2563097 -21.720051 -2.356817 0 250 0 8.4595423 -4.0034413 401.32074 0
2.3248785 -21.670135 -2.3405452 0 250 0 8.657444 -4.3491344 404.33603 0
2.4470758 -21.568327 -2.3074501 0 250 0 5.4294124 -7.1628799 405.60956 0
2.6190515 -21.400486 -2.3271427 0 250 0 5.955843 -8.9190292 406.74265 0
2.6852858 -21.349424 -2.3592262 0 250 0 5.2498794 -8.2590351 404.88541 0
2.7677357 -21.207087 -2.3357859 0 250 0 5.3546586 -5.9108806 402.22314 0
2.9116547 -21.041145 -2.2886553 0 250 0 5.998744 -5.943058 400.71527 0
2.9681025 -20.989067 -2.2838721 0 250 0 7.5494337 -6.5531206 400.35297 0
3.0668645 -20.869499 -2.3104782 0 250 0 8.7473955 -6.9677458 400.55725 0
3.2327814 -20.69842 -2.3109965 0 250 0 8.8541899 -8.5244036 404.96237 0
3.3866935 -20.506821 -2.2473254 0 250 0 6.6435647 -9.5706882 408.50958 0
3.4517002 -20.447542 -2.2368298 0 250 0 7.092514 -11.276247 410.26355 0
3.5762174 -20.330759 -2.3119087 0 250 0 5.9468341 -12.472594 409.24817 0
3.7183428 -20.151491 -2.297368 0 250 0 6.0711026 -10.509692 404.07175 0
3.7567043 -20.092487 -2.27916 0 250 0 6.9767194 -9.3101377 403.07394 0
3.8640497 -19.995543 -2.2881329 0 250 0 9.2800169 -10.188944 401.11026 0
3.9823651 -19.812939 -2.3182721 0 250 0 10.618682 -6.5950403 400.42929 0
4.0507507 -19.761806 -2.3279071 0 250 0 9.3941154 -6.7323174 401.69345 0
4.1815133 -19.658571 -2.2943356 0 250 0 7.5532455 -7.13483 402.66068 0
4.3229995 -19.496084 -2.2390921 0 250 0 9.2537708 -9.357275 403.82352 0
4.5015626 -19.331367 -2.2938147 0 250 0 6.2035289 -10.43849 403.00446 0
4.552269 -19.268152 -2.2913826 0 250 0 4.8785462 -9.7318821 401.7663 0
4.6681252 -19.169119 -2.2657068 0 250 0 4.7867975 -9.3185349 399.72595 0
4.8092031 -19.016893 -2.2619133 0 250 0 8.7846174 -8.8326759 399.14194 0
4.8596725 -18.967752 -2.2809203 0 250 0 9.4597464 -8.1472549 399.25296 0
4.9676399 -18.854218 -2.2731614 0 250 0 9.7467222 -10.680953 401.82004 0
5.1603694 -18.698708 -2.2521811 0 250 0 6.3546834 -11.812987 406.94138 0
5.3129554 -18.532393 -2.2256742 0 250 0 8.8459377 -12.244917 407.65207 0
5.373086 -18.475254 -2.2589579 0 250 0 8.3062344 -12.844135 407.41336 0
5.4758325 -18.358543 -2.2782764 0 250 0 6.8870025 -12.484115 404.88843 0
5.6288028 -18.204651 -2.2656577 0 250 0 5.7397542 -11.148864 399.81677 0
5.6711998 -18.152044 -2.2363253 0 250 0 7.9391227 -10.336294 399.13092 0
5.7629423 -18.055733 -2.2310598 0 250 0 9.4855928 -12.254907 397.84814 0
5.9081969 -17.90247 -2.2464337 0 250 0 9.5638561 -14.214328 400.28882 0
5.9361234 -17.839703 -2.2213306 0 250 0 9.7871895 -14.820172 401.94086 0
6.08636 -17.739126 -2.1946013 0 250 0 7.5177612 -16.314501 404.13412 0
6.2081604 -17.58848 -2.1943953 0 250 0 7.4846497 -18.23991 406.854 0
6.3854985 -17.429262 -2.2508266 0 250 0 4.4098516 -15.487226 405.28592 0
6.4187794 -17.359131 -2.2441225 0 250 0 4.2064257 -14.534283 404.70511 0
6.5245852 -17.266745 -2.2221549 0 250 0 3.6835346 -12.799968 403.42712 0
6.6596217 -17.109592 -2.227845 0 250 0 7.8098092 -10.944458 401.43503 0
6.7050371 -17.047895 -2.2342656 0 250 0 8.296977 -10.533697 402.05472 0
6.8255029 -16.935347 -2.2464314 0 250 0 8.8327847 -11.932573 403.69888 0
7.0102487 -16.779076 -2.1883175 0 250 0 7.0281644 -13.636996 405.71085 0
7.1551456 -16.622492 -2.1788304 0 250 0 7.8174305 -13.789822 407.01447 0
7.2199306 -16.576504 -2.2055795 0 250 0 7.4148216 -14.148258 407.00699 0
7.3076091 -16.450079 -2.2247741 0 250 0 5.9880104 -12.149605 404.9447 0
7.474834 -16.311152 -2.2045574 0 250 0 6.2092924 -10.722391 402.59137 0
7.534337 -16.265741 -2.1946278 0 250 0 8.4454746 -8.844018 401.94684 0
7.6398191 -16.146296 -2.1961062 0 250 0 8.9755249 -8.9507561 400.78665 0
7.8135347 -15.970925 -2.1907465 0 250 0 8.6783648 -11.422614 405.03152 0
7.8757668 -15.922021 -2.1915901 0 250 0 8.0175381 -11.751415 407.12393 0
8.0017605 -15.828012 -2.1716325 0 250 0 7.2676721 -11.601675 407.24237 0
8.1505117 -15.668297 -2.1635556 0 250 0 7.7817893 -13.169517 409.68484 0
8.3051052 -15.505952 -2.1831267 0 250 0 5.7248039 -12.461309 408.65689 0
8.3640337 -15.456643 -2.1740022 0 250 0 4.6446886 -12.428381 408.62024 0
8.4464426 -15.349069 -2.1650083 0 250 0 6.2531796 -10.835632 406.55182 0
8.5537777 -15.160968 -2.1643486 0 250 0 8.3787632 -10.96712 408.7851 0
8.6677246 -14.96079 -2.1636379 0 250 0 7.614233 -14.04029 415.75043 0
8.7200136 -14.906834 -2.1620469 0 250 0 7.3313422 -13.620994 419.50415 0
8.7799358 -14.786859 -2.1444576 0 250 0 5.0136995 -13.492996 424.48257 0
8.8958511 -14.590923 -2.1471412 0 250 0 3.8090088 -13.804659 431.19733 0
8.9450874 -14.526916 -2.1643589 0 250 0 3.7065871 -13.652367 431.21948 0
8.9896107 -14.389136 -2.159349 0 250 0 3.8096142 -10.914325 430.26038 0
9.0406637 -14.18675 -2.1115541 0 250 0 3.7833257 -10.071013 430.77377 0
9.0641117 -14.116386 -2.0969281 0 250 0 4.2368903 -10.610785 432.63605 0
9.0988245 -13.970656 -2.1252687 0 250 0 4.686141 -12.267052 436.67645 0
9.1287336 -13.749836 -2.12466 0 250 0 2.7322183 -14.096875 443.39435 0
9.1596708 -13.549526 -2.0643375 0 250 0 1.2029773 -12.534211 451.95132 0
9.1634159 -13.480888 -2.0531094 0 250 0 1.7872516 -12.970064 455.4093 0
9.1912642 -13.326173 -2.0755687 0 250 0 1.182683 -14.422606 459.25415 0
9.2020531 -13.100307 -2.0602627 0 250 0 -0.32209107 -11.755451 460.58102 0
9.2192268 -13.016033 -2.0441942 0 250 0 -1.6987942 -12.354447 459.83902 0
9.1941376 -12.877131 -2.020921 0 250 0 2.0082927 -10.803489 458.98026 0
9.1684532 -12.658677 -2.0294447 0 250 0 3.3653603 -13.51546 463.40662 0
9.1677513 -12.423521 -2.0302122 0 250 0 1.6518576 -15.795545 470.026 0
9.2030697 -12.334608 -2.0072939 0 250 0 -0.48243824 -15.231313 471.82468 0
9.1513748 -12.191671 -1.982841 0 250 0 -0.67720854 -13.908398 472.74521 0
9.1263952 -11.950214 -1.9845942 0 250 0 -0.32155055 -16.160923 476.01529 0
9.1117973 -11.87183 -1.9883728 0 250 0 -0.15295133 -14.921456 475.54007 0
9.0836773 -11.715796 -1.9367537 0 250 0 -1.8511871 -14.450832 475.80838 0
8.9853096 -11.474891 -1.8959062 0 250 0 1.58771 -13.02553 473.71756 0
8.9278736 -11.264262 -1.891577 0 250 0 3.2621737 -14.574903 478.85419 0
8.9025917 -11.1968 -1.8764658 0 250 0 2.5644352 -15.171553 480.68338 0
8.8668594 -11.059595 -1.8384359 0 250 0 -1.3720974 -14.842642 487.73105 0
8.806716 -10.833426 -1.7629794 0 250 0 -2.7370338 -13.419843 489.80096 0
8.7869368 -10.76437 -1.73155 0 250 0 -2.8906059 -14.208825 490.9411 0
8.7473927 -10.6014 -1.7422175 0 250 0 -2.8431163 -16.925953 490.94775 0
8.6749735 -10.39652 -1.7150681 0 250 0 -2.8850975 -15.92115 488.22244 0
8.6772451 -10.314772 -1.6945919 0 250 0 -3.7127011 -16.133953 486.91763 0
8.6099892 -10.206637 -1.6925997 0 250 0 -0.37006566 -13.661947 484.42847 0
8.5033817 -10.020119 -1.6639463 0 250 0 1.7193037 -15.77604 488.07593 0
8.4357252 -9.8185081 -1.6574234 0 250 0 -0.42675936 -15.7087 491.47415 0
8.4353743 -9.7368021 -1.6229677 0 250 0 -1.7818774 -15.227061 493.29742 0
8.3792515 -9.6180487 -1.5956689 0 250 0 -0.92936057 -15.151735 493.76395 0
8.3050375 -9.410944 -1.5877601 0 250 0 -0.19667318 -17.202971 493.91812 0
8.2907972 -9.33605 -1.5937598 0 250 0 0.07602042 -16.707178 493.33502 0
8.2304363 -9.2095013 -1.5649633 0 250 0 -1.64735 -16.298672 491.2186 0
8.1328945 -9.0288887 -1.5296855 0 250 0 2.7067542 -14.189596 486.1232 0
8.0965633 -8.9609337 -1.5162048 0 250 0 3.49019 -14.514746 486.11227 0
8.0011997 -8.8532553 -1.5125095 0 250 0 4.8911405 -15.307734 488.5585 0
7.9080958 -8.6187639 -1.4936668 0 250 0 0.9719187 -16.497427 492.75717 0
7.8074307 -8.4350767 -1.4403445 0 250 0 0.60368663 -15.332335 493.56351 0
7.7740541 -8.3659916 -1.4297194 0 250 0 1.0456313 -15.674611 494.00525 0
7.6931272 -8.2386265 -1.4330208 0 250 0 2.9313793 -15.994877 493.1026 0
7.57832 -8.0552349 -1.396138 0 250 0 0.94880772 -16.537416 491.54092 0
7.544507 -8.0045414 -1.4030259 0 250 0 0.18639094 -16.23101 489.50232 0
7.4520817 -7.9047065 -1.3736932 0 250 0 3.5834856 -14.624171 488.44778 0
7.3080134 -7.7312427 -1.359828 0 250 0 4.6866179 -16.321463 489.78494 0
7.1971159 -7.5403214 -1.3346339 0 250 0 1.3878266 -15.62859 494.7103 0
7.1547804 -7.4841208 -1.3197305 0 250 0 -0.51980186 -16.026176 494.37024 0
7.0557075 -7.3869662 -1.29272 0 250 0 1.0435902 -14.667448 495.63733 0
6.9172201 -7.2090616 -1.295746 0 250 0 1.6538745 -16.312443 494.76227 0
6.8711643 -7.1528025 -1.2898844 0 250 0 0.74531019 -15.398315 493.8551 0
6.7772379 -7.0448279 -1.2513747 0 250 0 0.56705695 -15.338565 492.33221 0
6.626298 -6.9019928 -1.2337866 0 250 0 3.3652427 -15.633189 490.52444 0
6.5685587 -6.8607564 -1.2406952 0 250 0 4.4137225 -15.308848 490.61365 0
6.475265 -6.7336521 -1.236414 0 250 0 3.5141506 -16.49173 493.72568 0
0 0 0 1 0 0 0 1 0 0 0 1 0 0 0 0 0 525 1 0 0
