ply
format ascii 1.0
comment PCL generated
element vertex 500
property float x
property float y
property float z
property uchar red
property uchar green
property uchar blue
property float nx
property float ny
property float nz
property float curvature
element camera 1
property float view_px
property float view_py
property float view_pz
property float x_axisx
property float x_axisy
property float x_axisz
property float y_axisx
property float y_axisy
property float y_axisz
property float z_axisx
property float z_axisy
property float z_axisz
property float focal
property float scalex
property float scaley
property float centerx
property float centery
property int viewportx
property int viewporty
property float k1
property float k2
end_header
1.4145728 -1.6465385 -0.14120725 0 250 0 0.098284125 -10.946377 112.42198 0
1.409047 -1.6294756 -0.13845247 0 250 0 0.4870182 -10.937302 112.85535 0
1.3947102 -1.5981859 -0.13671218 0 250 0 1.2371178 -10.639341 113.45416 0
1.3872876 -1.5828937 -0.13658558 0 250 0 1.6315482 -10.547974 114.11243 0
1.3759366 -1.5470923 -0.13884009 0 250 0 1.860973 -10.205202 114.95916 0
1.3454024 -1.4797734 -0.11612736 0 250 0 1.787657 -10.30842 116.88684 0
1.3350177 -1.4551703 -0.10673575 0 250 0 1.8326554 -10.711952 117.32439 0
1.3196527 -1.4103607 -0.09373536 0 250 0 2.825067 -12.154387 117.87648 0
1.293207 -1.3545209 -0.089450523 0 250 0 3.4489865 -12.937638 117.42897 0
1.2486928 -1.2833551 -0.10088806 0 250 0 3.738044 -11.546282 115.99265 0
1.2265204 -1.2518736 -0.10078032 0 250 0 3.6246729 -11.129563 115.31487 0
1.1750365 -1.186547 -0.095020793 0 250 0 2.5513477 -11.647976 114.41927 0
1.0821568 -1.0983075 -0.051364418 0 250 0 2.7191889 -11.980093 112.07995 0
1.0662031 -1.0700119 -0.05580296 0 250 0 2.2766788 -12.843919 111.58842 0
1.0108008 -1.0350746 -0.0590588 0 250 0 2.290261 -11.089529 111.52089 0
0.92836362 -0.93021542 -0.065690964 0 250 0 2.3007922 -8.7383347 113.10021 0
0.83517814 -0.79099149 -0.055629056 0 250 0 1.3563826 -10.651851 115.5664 0
0.7880078 -0.7602064 -0.047037747 0 250 0 0.99734604 -10.097957 116.12458 0
0.73592949 -0.6756345 -0.021643188 0 250 0 0.38078174 -11.313064 118.69633 0
0.63594669 -0.57997036 -0.0090634907 0 250 0 2.6935003 -10.68736 121.07156 0
0.60897529 -0.5260058 -0.016410343 0 250 0 2.296382 -10.364244 121.38396 0
0.52172279 -0.45062226 0.00082126155 0 250 0 1.2902598 -10.722014 120.53209 0
0.40198776 -0.33376634 0.040924091 0 250 0 0.88901329 -10.527905 118.54978 0
0.36709213 -0.30885366 0.035590313 0 250 0 0.91680026 -11.728004 117.87901 0
0.292934 -0.23623338 0.023367256 0 250 0 2.0915856 -9.8892107 117.58333 0
0.17135186 -0.11127835 0.021299563 0 250 0 2.3836706 -9.8018465 119.64164 0
0.042358194 0.02723157 0.061731026 0 250 0 1.9722729 -8.9093752 121.10448 0
0.012277495 0.090012483 0.077656768 0 250 0 0.97623968 -10.211659 122.40644 0
-0.054657638 0.1447368 0.084727779 0 250 0 2.479517 -10.482162 122.38093 0
-0.16052368 0.29341167 0.06636931 0 250 0 3.2805033 -10.703918 121.95174 0
-0.21434604 0.33313197 0.088266678 0 250 0 3.322062 -10.457587 121.05048 0
-0.28817737 0.44576541 0.086337015 0 250 0 1.5958251 -12.344823 119.54502 0
-0.41825765 0.53812861 0.11497375 0 250 0 3.1465645 -12.900082 116.02946 0
-0.5560922 0.64963871 0.11338066 0 250 0 4.7492452 -10.919811 117.62561 0
-0.58724552 0.72350234 0.1174058 0 250 0 3.9796638 -11.884629 118.3823 0
-0.66303778 0.81546867 0.079152048 0 250 0 2.4373689 -11.598451 118.13814 0
-0.79705501 1.0016552 0.13179272 0 250 0 0.90899795 -11.292725 120.4416 0
-0.86116683 0.99972838 0.14536712 0 250 0 1.9932938 -10.811101 120.02505 0
-0.92125851 1.1439955 0.15898898 0 250 0 4.0240135 -11.961468 121.33292 0
-1.0598971 1.2766634 0.14524941 0 250 0 2.3178823 -11.47863 120.43179 0
-1.0853083 1.3299671 0.14807098 0 250 0 0.50224954 -12.218061 119.51196 0
-1.1698943 1.3872453 0.18196662 0 250 0 1.8685197 -12.177806 116.46438 0
-1.285836 1.4996462 0.15281983 0 250 0 2.6110349 -11.151926 114.66703 0
-1.4452487 1.6257583 0.16640814 0 250 0 2.1563103 -11.56344 115.81377 0
-1.4789414 1.6839538 0.15820374 0 250 0 1.5452058 -11.010954 116.25748 0
-1.5904818 1.7763734 0.20457214 0 250 0 0.76316935 -10.500787 118.37327 0
-1.714817 1.9093726 0.2578921 0 250 0 1.0195384 -11.264477 120.33419 0
-1.749761 1.9695803 0.26730666 0 250 0 1.3079813 -12.357859 121.10467 0
-1.8219723 2.0733163 0.24838746 0 250 0 1.5307271 -13.169366 119.91795 0
-1.9560255 2.1824908 0.24529386 0 250 0 -0.24290232 -12.417887 116.44522 0
-2.0073245 2.2195528 0.27086309 0 250 0 0.5474503 -11.945089 115.66516 0
-2.0920405 2.2779436 0.25805974 0 250 0 1.9697847 -11.573586 114.69745 0
-2.2397594 2.39309 0.27699578 0 250 0 2.673202 -11.116568 117.3222 0
-2.3640592 2.5163665 0.27774149 0 250 0 1.8338853 -10.895056 119.5328 0
-2.4240799 2.5556221 0.30403522 0 250 0 2.1125526 -10.756984 121.48612 0
-2.4714444 2.6704619 0.31117871 0 250 0 0.22775681 -11.312651 124.07262 0
-2.6076703 2.7907839 0.32780999 0 250 0 1.6826873 -11.163877 124.21281 0
-2.6473725 2.8402348 0.31527913 0 250 0 1.2263061 -11.511164 123.73399 0
-2.7357533 2.916816 0.29838097 0 250 0 -0.012234306 -10.175205 120.8609 0
-2.8704391 3.0269136 0.34379193 0 250 0 1.4705341 -9.9670763 117.95564 0
-3.0239911 3.1529355 0.3557997 0 250 0 3.3154593 -9.3442965 117.54608 0
-3.0762827 3.2035913 0.35641897 0 250 0 2.5959928 -9.6094561 118.76126 0
-3.1596 3.3285606 0.34366226 0 250 0 0.4434022 -11.543214 120.44312 0
-3.2959709 3.4217362 0.35560593 0 250 0 -2.8495369 -11.941343 122.56356 0
-3.3422465 3.4509213 0.36321044 0 250 0 -2.1683483 -11.502748 122.28139 0
-3.4402606 3.5475368 0.38961774 0 250 0 -0.73972374 -12.076189 123.19344 0
-3.5502841 3.6958418 0.35569376 0 250 0 -0.43847886 -12.595067 120.25999 0
-3.6933486 3.7511511 0.37289649 0 250 0 0.76452941 -10.819121 114.63837 0
-3.7575901 3.7863688 0.39230019 0 250 0 2.7462373 -9.8880873 114.69449 0
-3.8442035 3.8738573 0.36612096 0 250 0 3.0847499 -10.390532 116.02372 0
-4.0125647 4.0058284 0.36152548 0 250 0 2.232372 -11.647279 121.7604 0
-4.0656471 4.0365186 0.38663104 0 250 0 2.3895636 -11.871132 123.66854 0
-4.1340947 4.1315384 0.35964057 0 250 0 -0.28509286 -11.583089 123.37209 0
-4.2638001 4.2491941 0.38001329 0 250 0 0.5848909 -12.119233 123.74109 0
-4.3052912 4.2882886 0.35570046 0 250 0 0.74225914 -12.013163 122.65228 0
-4.3919964 4.4031496 0.35988349 0 250 0 0.23580889 -12.049321 120.74007 0
-4.5319877 4.4516349 0.39119551 0 250 0 1.0837544 -10.58025 116.95442 0
-4.6616354 4.5518465 0.37976494 0 250 0 2.1392977 -11.125665 120.86406 0
-4.7130251 4.6180854 0.39115605 0 250 0 1.9010245 -11.514315 122.79399 0
-4.7986956 4.7178235 0.38403428 0 250 0 1.0851701 -13.030257 124.97404 0
-4.9248052 4.8441067 0.40102357 0 250 0 -0.86536294 -13.536337 124.46699 0
-4.9347324 4.8835783 0.40823939 0 250 0 0.54898995 -12.27634 124.15642 0
-5.0369682 5.0214701 0.40883648 0 250 0 0.86333883 -13.636069 123.65116 0
-5.1704502 5.1490917 0.40369102 0 250 0 0.33756006 -12.969417 120.97504 0
-5.2844267 5.2023344 0.42546481 0 250 0 0.91618961 -12.431938 118.59747 0
-5.3349819 5.2428508 0.44013235 0 250 0 2.3004966 -11.9343 118.93388 0
-5.4035201 5.3042378 0.42316341 0 250 0 2.18736 -11.316084 120.8222 0
-5.5532789 5.4021988 0.41895953 0 250 0 1.3638151 -13.222077 129.41428 0
-5.6040301 5.4513316 0.42939526 0 250 0 -0.65365374 -12.151839 132.12018 0
-5.7021432 5.5485544 0.44085139 0 250 0 -2.5401645 -12.088022 137.2923 0
-5.8845239 5.6415491 0.45562217 0 250 0 -2.7938495 -10.89939 141.74725 0
-5.9286804 5.6647673 0.4434981 0 250 0 -3.2012067 -11.83733 142.8903 0
-6.0399041 5.7133675 0.43780163 0 250 0 -3.2330129 -11.911515 144.78215 0
-6.200593 5.8103423 0.4451592 0 250 0 -4.9739361 -12.845982 147.39001 0
-6.3702488 5.8430772 0.45665729 0 250 0 -1.3286622 -11.000396 148.62814 0
-6.4140139 5.8356285 0.43938625 0 250 0 -1.5436953 -10.550219 150.25925 0
-6.5875559 5.8600445 0.4509066 0 250 0 -1.6388336 -10.72875 156.69647 0
-6.7609935 5.8924704 0.43709457 0 250 0 -3.2110527 -9.5375919 164.79175 0
-6.8453507 5.8999352 0.44405347 0 250 0 -4.932879 -10.081505 166.21957 0
-6.9513273 5.8870559 0.44357434 0 250 0 -3.104481 -8.5284185 170.00723 0
-7.1524248 5.9199886 0.41745913 0 250 0 -2.6511807 -9.1087437 171.00304 0
-7.3427482 5.9367342 0.40904948 0 250 0 -4.7605696 -9.88731 171.65356 0
-7.383069 5.8963766 0.41384575 0 250 0 -4.0559354 -8.3274584 171.05638 0
-7.5187979 5.8936691 0.42046198 0 250 0 -2.0316565 -7.8118162 174.12836 0
-7.7244349 5.8155732 0.40374452 0 250 0 -1.9069681 -8.3718262 182.51408 0
-7.7874656 5.8171749 0.38233396 0 250 0 -3.4272552 -7.7658176 185.55679 0
-7.9372215 5.801836 0.39668652 0 250 0 -5.0219193 -6.0273809 190.17126 0
-8.1266022 5.7321572 0.41130385 0 250 0 -3.4073293 -5.1525435 194.93564 0
-8.1625757 5.7061892 0.39168108 0 250 0 -3.9899375 -6.4905858 195.35548 0
-8.2601118 5.6568394 0.38127109 0 250 0 -3.1370778 -5.9779696 194.51346 0
-8.2779274 5.5525093 0.37728709 0 250 0 -4.4643545 -6.1562643 192.97636 0
-8.4698601 5.4694619 0.39700246 0 250 0 -1.6328152 -6.4507179 195.05977 0
-8.5290518 5.4277744 0.3859165 0 250 0 -2.036659 -7.4898219 196.54605 0
-8.6508932 5.3486257 0.37095562 0 250 0 -3.804101 -9.7731981 199.32617 0
-8.7383747 5.2329173 0.36999971 0 250 0 -4.604075 -7.451489 202.59193 0
-8.786499 5.2007461 0.37646079 0 250 0 -3.132149 -5.1643786 204.26047 0
-8.9130058 5.1324711 0.37946594 0 250 0 -2.5571456 -7.3012381 205.75116 0
-9.0737553 5.0243011 0.39223501 0 250 0 -3.8083177 -3.6922078 202.48116 0
-9.1217585 4.9882483 0.4175227 0 250 0 -3.7548501 -4.3203936 201.59193 0
-9.1732054 4.9132104 0.41678023 0 250 0 -2.9164588 -2.5770772 199.8212 0
-9.2813387 4.8002439 0.41975605 0 250 0 -1.5821332 -3.1808028 201.94972 0
-9.4002209 4.682117 0.4318845 0 250 0 -2.9806371 -5.5026517 205.96786 0
-9.4385433 4.6501899 0.43690857 0 250 0 -2.2727299 -5.3857002 207.69638 0
-9.5051785 4.591269 0.43772736 0 250 0 -4.2373528 -5.4626822 206.93214 0
-9.6499395 4.5141449 0.44217706 0 250 0 -3.6103995 -5.0101066 207.09435 0
-9.6645985 4.4557304 0.41481814 0 250 0 -3.7199347 -5.3447056 206.16087 0
-9.767993 4.3656063 0.41417459 0 250 0 -2.9612896 -7.1341419 205.88289 0
-9.8847246 4.2404327 0.37469229 0 250 0 -3.1092145 -6.841136 203.44615 0
-10.002976 4.0978751 0.36640203 0 250 0 -1.6326908 -6.4808254 205.51239 0
-10.067801 4.0610514 0.36308897 0 250 0 -1.6101785 -6.705863 206.23195 0
-10.161434 3.9673815 0.36071628 0 250 0 -1.638496 -6.4341583 208.29994 0
-10.310305 3.8627717 0.36837631 0 250 0 -2.677927 -5.5730863 207.52382 0
-10.343271 3.8160586 0.37274924 0 250 0 -1.3649545 -4.3168931 207.95721 0
-10.440038 3.7518404 0.37001178 0 250 0 -2.0426805 -5.2896042 208.9711 0
-10.562017 3.6230121 0.35166362 0 250 0 -2.3309188 -4.5999279 207.19287 0
-10.590549 3.5793381 0.34649134 0 250 0 -3.1767139 -4.1371803 206.30493 0
-10.664079 3.491245 0.36136511 0 250 0 -2.8146632 -3.2302258 204.30951 0
-10.768313 3.3561938 0.36433536 0 250 0 -0.80717909 -3.2215042 204.64365 0
-10.88538 3.2087479 0.3469733 0 250 0 -0.23921254 -5.1787958 209.19107 0
-10.945224 3.1519115 0.36521593 0 250 0 -0.86194426 -5.3735394 211.4742 0
-11.051859 3.0687711 0.35164765 0 250 0 -2.5448985 -6.2880836 213.12756 0
-11.181305 2.9366853 0.36347708 0 250 0 -1.287282 -5.4268508 213.35468 0
-11.222842 2.9003296 0.33956206 0 250 0 -1.2933623 -6.008831 213.07396 0
-11.303111 2.8053448 0.33127815 0 250 0 -0.69758612 -5.6271319 212.65102 0
-11.422482 2.6521027 0.34466201 0 250 0 -2.0516491 -5.8495574 212.65738 0
-11.503598 2.4939599 0.33872962 0 250 0 -0.31237066 -6.0711403 214.07071 0
-11.520896 2.4349794 0.3224183 0 250 0 -0.53869587 -5.4212632 215.09952 0
-11.57946 2.3050828 0.32230321 0 250 0 -0.95489329 -5.6245732 220.57329 0
-11.649591 2.1136558 0.29810563 0 250 0 -2.3875909 -4.9472327 228.88525 0
-11.700841 2.0622501 0.30460578 0 250 0 -2.9406269 -4.7233715 232.08331 0
-11.718087 1.9389237 0.30708688 0 250 0 -1.6950394 -3.7166684 235.71323 0
-11.792582 1.7468063 0.29328984 0 250 0 -2.2632208 -6.6250887 239.93277 0
-11.83226 1.5571567 0.2858451 0 250 0 -3.9140642 -6.6562567 240.55478 0
-11.846809 1.5033609 0.2801246 0 250 0 -3.5361915 -6.1035075 239.7374 0
-11.838778 1.3767753 0.29898697 0 250 0 -1.5621803 -5.3407454 240.3385 0
-11.844766 1.1942568 0.25721058 0 250 0 -0.65210676 -5.7086062 244.83868 0
-11.841328 1.1344452 0.24118717 0 250 0 0.027401173 -5.3298998 247.40971 0
-11.834459 1.0039799 0.24591039 0 250 0 0.066918768 -3.3370488 252.41553 0
-11.83614 0.81556308 0.26021603 0 250 0 0.0040161521 -3.2533853 259.9101 0
-11.835006 0.62220883 0.24210866 0 250 0 0.66905451 -3.9951453 263.05203 0
-11.832629 0.55659831 0.22559251 0 250 0 0.51717776 -3.7678204 262.89352 0
-11.816473 0.42216837 0.22319445 0 250 0 -2.4827528 -3.6075706 262.98468 0
-11.802415 0.22965331 0.24130832 0 250 0 -1.8115797 -3.4309051 261.12979 0
-11.786415 0.17176576 0.23311882 0 250 0 -0.75276923 -3.2894697 260.95325 0
-11.762081 0.047318265 0.21725582 0 250 0 1.438993 -2.8239026 262.80847 0
-11.745152 -0.15536493 0.17977506 0 250 0 0.80011708 -2.7578199 267.44763 0
-11.733444 -0.22600228 0.1894159 0 250 0 1.1977177 -2.1160352 269.33121 0
-11.751153 -0.36219123 0.19662276 0 250 0 -0.8108924 -2.8770204 272.17316 0
-11.721023 -0.54438758 0.20355798 0 250 0 1.5211174 -3.5658994 273.43304 0
-11.689489 -0.72750264 0.16585237 0 250 0 -0.014511903 -3.1254199 270.61539 0
-11.662651 -0.78589559 0.17136306 0 250 0 -1.5153191 -3.9934187 270.10257 0
-11.681976 -0.90820783 0.15639649 0 250 0 -2.6078002 -4.694356 267.4072 0
-11.595477 -1.0741588 0.17163011 0 250 0 -1.0522478 -3.8581433 265.85263 0
-11.575335 -1.130434 0.16190025 0 250 0 -0.71737105 -4.3819804 266.85562 0
-11.563232 -1.2541143 0.13997835 0 250 0 0.55751956 -4.9087086 267.42892 0
-11.539238 -1.4407138 0.13824494 0 250 0 0.87826037 -2.9707747 269.81683 0
-11.534092 -1.4966578 0.13912816 0 250 0 -0.28480038 -2.357996 268.19717 0
-11.505881 -1.6229502 0.16386071 0 250 0 1.3308667 -1.4045862 266.63623 0
-11.499545 -1.8281316 0.12210297 0 250 0 -0.7056421 -3.5739563 263.45331 0
-11.464211 -2.0280967 0.14665161 0 250 0 -4.2360783 -1.7456613 258.69473 0
-11.46831 -2.095325 0.18760754 0 250 0 -4.686573 -2.4301813 256.97931 0
-11.453956 -2.1986279 0.18468474 0 250 0 -3.7597044 -1.8414092 253.62308 0
-11.437367 -2.3816869 0.17626336 0 250 0 -0.15463237 -2.1527569 253.24036 0
-11.462706 -2.4539859 0.17196128 0 250 0 0.11946773 -2.5972307 253.69456 0
-11.465731 -2.5900633 0.16436873 0 250 0 -1.7301625 -3.6966968 253.29803 0
-11.479223 -2.7776544 0.18319923 0 250 0 -3.1711304 -4.2108335 254.77521 0
-11.469685 -2.9710407 0.16389647 0 250 0 -1.579888 -4.0705838 255.90083 0
-11.477275 -3.039669 0.15047976 0 250 0 -1.9418914 -4.2071362 254.57756 0
-11.470949 -3.1766827 0.14404832 0 250 0 -3.0252132 -5.9995646 251.00981 0
-11.434184 -3.3682485 0.13971321 0 250 0 -1.3208063 -3.9700434 245.11249 0
-11.443412 -3.432411 0.13986118 0 250 0 -0.43875334 -3.3530388 244.72372 0
-11.417391 -3.5634146 0.10393957 0 250 0 -0.74243414 -2.7311976 245.04375 0
-11.410702 -3.7890444 0.085693099 0 250 0 -2.1134551 -3.71349 248.01617 0
-11.379873 -3.8568776 0.090356119 0 250 0 -1.0030649 -2.7840557 250.56395 0
-11.393263 -3.9933269 0.099837802 0 250 0 -1.4023219 -2.8584905 255.12267 0
-11.389277 -4.2018752 0.087346204 0 250 0 1.6076921 -2.3395526 257.11182 0
-11.363301 -4.4052567 0.038413178 0 250 0 -1.9047668 -2.1491489 252.73482 0
-11.370683 -4.4775476 0.05312169 0 250 0 -2.0141881 -1.3509111 251.89072 0
-11.337026 -4.6008177 0.059946176 0 250 0 -1.2297813 -1.3740002 248.25862 0
-11.305938 -4.7930522 0.017235802 0 250 0 0.21576624 -1.3051357 248.7972 0
-11.297169 -4.8702345 0.017405456 0 250 0 -0.30670053 -1.3640302 249.87798 0
-11.276165 -5.0170074 0.0075519695 0 250 0 -0.94134915 -2.050493 251.7162 0
-11.257613 -5.2209406 0.023669673 0 250 0 -1.5708258 -3.5166907 256.54477 0
-11.249293 -5.4194441 0.0030207082 0 250 0 -0.58777559 -2.8287847 257.37302 0
-11.243503 -5.4829779 -0.024697538 0 250 0 -0.75915229 -2.715102 257.06198 0
-11.240741 -5.6141868 -0.053959981 0 250 0 -3.4628022 -2.0331063 254.07756 0
-11.231725 -5.8047323 -0.05602929 0 250 0 -3.4496815 -0.46864989 247.35933 0
-11.22136 -5.8681202 -0.058628239 0 250 0 -2.0461452 -0.17797145 246.31659 0
-11.211824 -5.9934897 -0.10651977 0 250 0 -1.9116709 1.0334244 245.03661 0
-11.193979 -6.2253885 -0.11975965 0 250 0 -2.8919158 0.030623173 248.57762 0
-11.205885 -6.4288096 -0.095222868 0 250 0 -1.8090078 -0.91025102 252.78036 0
-11.189352 -6.4826636 -0.10327093 0 250 0 -0.32839289 -0.72097176 253.20824 0
-11.210649 -6.6132369 -0.10831877 0 250 0 0.12782459 -0.9702158 254.55164 0
-11.227108 -6.8141084 -0.16809064 0 250 0 -3.4775879 -1.7217497 251.41701 0
-11.185608 -6.8897028 -0.1660687 0 250 0 -3.9188995 -1.917133 249.37868 0
-11.219349 -7.0217123 -0.15986338 0 250 0 -3.7931397 -2.6367543 244.82571 0
-11.207472 -7.2172561 -0.16893841 0 250 0 0.023090711 -2.8071501 244.06888 0
-11.197637 -7.2840624 -0.19020078 0 250 0 0.63663399 -2.7964611 245.05748 0
-11.235431 -7.4325151 -0.23822029 0 250 0 1.4315987 -3.1298709 248.25563 0
-11.251988 -7.6540852 -0.20823929 0 250 0 -1.011861 -2.6478438 252.97269 0
-11.279622 -7.827868 -0.21153423 0 250 0 1.3915586 -3.5382514 255.68646 0
-11.298816 -7.8886375 -0.23915845 0 250 0 0.81807381 -3.534992 254.92322 0
-11.321812 -8.0237455 -0.25757179 0 250 0 -1.5083712 -1.3989145 251.78227 0
-11.333476 -8.2165604 -0.24057363 0 250 0 -3.0040073 -2.7340066 248.14821 0
-11.318578 -8.2731123 -0.24020772 0 250 0 -3.2867715 -2.0061431 246.76993 0
-11.318873 -8.3896542 -0.23786691 0 250 0 -1.2475863 -1.8873345 247.20403 0
-11.345922 -8.5648718 -0.26843482 0 250 0 -0.94453204 -1.6437799 249.9852 0
-11.386611 -8.6221457 -0.28938413 0 250 0 -1.3870248 -2.2824011 251.28468 0
-11.41257 -8.7334433 -0.28567809 0 250 0 -1.5636277 -2.0487232 253.02147 0
-11.476257 -8.8816843 -0.26007375 0 250 0 -1.5150299 -2.5470195 252.58308 0
-11.551623 -9.0180149 -0.29509073 0 250 0 -1.8287683 -2.2241261 250.02647 0
-11.565105 -9.0725031 -0.29862949 0 250 0 -2.3567517 -1.6118132 248.34583 0
-11.578849 -9.1812325 -0.31540385 0 250 0 -3.2622616 -1.3714366 246.52916 0
-11.609725 -9.3523216 -0.28432301 0 250 0 -3.7056329 -1.853346 241.90402 0
-11.61532 -9.3927708 -0.28705713 0 250 0 -2.1443555 -2.6690927 242.08751 0
-11.61928 -9.4732885 -0.31259519 0 250 0 -1.4931874 -2.2295315 241.89323 0
-11.634784 -9.6396704 -0.332488 0 250 0 -0.87536287 -1.0000707 245.79498 0
-11.649866 -9.8112822 -0.33447763 0 250 0 -0.99374449 -2.405535 250.66924 0
-11.685848 -9.8712358 -0.32936481 0 250 0 -0.93134362 -2.7778058 252.86131 0
-11.696328 -9.9698534 -0.33337501 0 250 0 0.053029194 -3.1098874 254.01956 0
-11.729028 -10.133666 -0.37837237 0 250 0 -0.74568456 -2.0288513 254.21223 0
-11.735991 -10.200376 -0.38731241 0 250 0 -1.2720892 -1.8001684 253.73082 0
-11.750309 -10.323548 -0.40843666 0 250 0 -4.7039051 -3.3014164 251.2485 0
-11.742932 -10.500534 -0.39503899 0 250 0 -3.4174044 -2.9841824 247.46983 0
-11.740618 -10.55477 -0.39958289 0 250 0 -2.354346 -2.0660195 247.18494 0
-11.755347 -10.676149 -0.42411911 0 250 0 -1.5225402 -2.1319821 246.80365 0
-11.764355 -10.889216 -0.45053571 0 250 0 -1.6298488 -4.4598575 249.54938 0
-11.832787 -11.1004 -0.43767193 0 250 0 -3.4813175 -6.6578689 254.78622 0
-11.833137 -11.151999 -0.43443203 0 250 0 -3.3644361 -6.9665918 254.09251 0
-11.840544 -11.274671 -0.43614393 0 250 0 -1.7681035 -6.8739066 255.17937 0
-11.880775 -11.454212 -0.50318921 0 250 0 -3.223907 -5.9125471 252.70949 0
-11.871327 -11.523639 -0.50688976 0 250 0 -4.8839545 -5.4073691 251.38879 0
-11.89882 -11.663027 -0.48180583 0 250 0 -4.6125097 -6.0578642 250.18336 0
-11.897384 -11.837803 -0.49319807 0 250 0 -1.5147153 -5.3957367 245.79074 0
-11.886512 -12.026639 -0.54055625 0 250 0 -1.3462616 -5.1244941 247.61815 0
-11.891597 -12.086412 -0.5638274 0 250 0 -1.2180452 -6.0244441 249.06207 0
-11.891318 -12.207143 -0.57701111 0 250 0 -1.2858903 -5.0301838 251.6057 0
-11.920441 -12.374104 -0.58740264 0 250 0 -1.8606819 -2.429553 252.35728 0
-11.919288 -12.45152 -0.56582642 0 250 0 -0.68639159 -1.744539 253.38966 0
-11.940395 -12.576864 -0.60914022 0 250 0 -1.5325511 -4.4498248 253.61473 0
-11.924389 -12.767237 -0.64314032 0 250 0 -3.7268951 -3.1166961 251.22679 0
-11.935465 -12.832675 -0.63518363 0 250 0 -2.955266 -2.3662732 250.52713 0
-11.938228 -12.957047 -0.63565791 0 250 0 -1.3422767 -2.5468464 247.9413 0
-11.940748 -13.149197 -0.67428064 0 250 0 -0.35168704 -1.9260277 248.47845 0
-11.93487 -13.334419 -0.6960144 0 250 0 -1.848858 -2.4155078 248.99536 0
-11.934977 -13.396496 -0.69377947 0 250 0 -1.6134158 -1.5616187 252.19147 0
-11.950785 -13.527518 -0.69084436 0 250 0 -3.1161976 -1.5461895 253.51338 0
-11.954486 -13.733287 -0.71519965 0 250 0 -1.3589402 -2.0212283 256.38882 0
-11.967793 -13.799654 -0.74228275 0 250 0 -2.2973917 -2.3718851 255.09492 0
-11.937438 -13.930729 -0.75075096 0 250 0 -4.2395439 -0.47058377 251.8127 0
-11.939821 -14.125319 -0.73992723 0 250 0 -2.8561537 -0.54790527 247.78177 0
-11.936142 -14.32557 -0.76507467 0 250 0 -2.0478983 -0.6628387 247.97798 0
-11.946651 -14.394125 -0.7818684 0 250 0 -2.0277576 -1.9236045 248.98187 0
-11.935452 -14.530723 -0.77789754 0 250 0 -2.3939853 -0.72936249 249.95813 0
-11.953997 -14.724413 -0.76767319 0 250 0 -1.8678489 -1.8759816 252.22952 0
-11.957983 -14.799494 -0.76099479 0 250 0 -1.274164 -1.8241411 253.10417 0
-11.970859 -14.925597 -0.81347829 0 250 0 -1.9132102 -3.5630057 253.90805 0
-11.964218 -15.139334 -0.82690364 0 250 0 -3.2797093 -1.1373892 249.5959 0
-11.984484 -15.207956 -0.82770437 0 250 0 -3.412354 -1.0747076 248.81407 0
-11.974205 -15.32794 -0.82728785 0 250 0 -2.9454288 -0.53500247 246.31773 0
-11.958732 -15.551383 -0.85280293 0 250 0 -2.7587595 -1.4092256 249.71582 0
-11.937806 -15.74145 -0.87579197 0 250 0 -3.3286016 -1.7478458 259.48877 0
-11.941867 -15.838351 -0.87772447 0 250 0 -5.234869 -1.9389174 262.6915 0
-11.921107 -15.951251 -0.89088786 0 250 0 -4.0556002 0.014059808 265.55505 0
-11.898683 -16.16831 -0.95070267 0 250 0 -4.4076414 -1.2761605 268.55701 0
-11.878635 -16.23941 -0.94999337 0 250 0 -4.6636772 -1.0592978 268.25543 0
-11.829754 -16.359375 -0.94997782 0 250 0 -4.2516751 -1.0076966 269.66348 0
-11.755879 -16.535736 -0.93695384 0 250 0 -1.5515884 -1.0183789 272.25925 0
-11.740146 -16.602198 -0.95466554 0 250 0 -0.9741621 -1.6209023 273.58777 0
-11.664929 -16.747334 -0.98510152 0 250 0 0.89896506 -1.3455175 276.72232 0
-11.54941 -16.91234 -1.009022 0 250 0 1.7663823 -3.0617697 286.20221 0
-11.466689 -17.086792 -1.0280846 0 250 0 0.051546253 -0.53150266 290.64215 0
-11.426182 -17.227386 -1.0288358 0 250 0 1.9396588 -0.050093867 293.47452 0
-11.361846 -17.350657 -1.0780469 0 250 0 1.1042055 -2.4256482 295.60071 0
-11.238523 -17.535095 -1.0957924 0 250 0 0.53553545 -2.3856425 294.42892 0
-11.218012 -17.603281 -1.1029298 0 250 0 -0.29061183 -2.589025 293.36377 0
-11.111691 -17.689419 -1.091393 0 250 0 1.5631589 -1.3444748 292.29382 0
-10.980064 -17.85025 -1.1615354 0 250 0 2.5879931 -1.3713472 295.19513 0
-10.838578 -18.025536 -1.1886431 0 250 0 0.53250307 -2.6752591 299.43817 0
-10.825133 -18.118923 -1.1986833 0 250 0 -0.13805766 -2.3285079 302.02194 0
-10.728112 -18.212975 -1.1845889 0 250 0 1.2803892 -1.6533757 302.42935 0
-10.602512 -18.413992 -1.2445562 0 250 0 2.5804 -3.3375125 302.50891 0
-10.553834 -18.481026 -1.2489021 0 250 0 2.1174998 -3.051425 300.67679 0
-10.441481 -18.568619 -1.2476789 0 250 0 2.5083354 -2.9359374 298.7608 0
-10.307683 -18.715958 -1.256731 0 250 0 3.7062769 -1.5395023 295.49905 0
-10.149422 -18.865864 -1.282421 0 250 0 5.494132 -0.6633631 297.12381 0
-10.099194 -18.913275 -1.303224 0 250 0 6.0548801 -1.8024297 298.51773 0
-9.9952164 -19.047556 -1.3140569 0 250 0 6.0015497 -2.0313668 301.69763 0
-9.8511429 -19.191462 -1.3197802 0 250 0 5.4330306 -0.14534535 301.9389 0
-9.8060093 -19.244629 -1.3279487 0 250 0 5.3478913 -0.56251013 303.02722 0
-9.7252035 -19.360758 -1.3879526 0 250 0 4.3488274 0.23604093 301.8566 0
-9.543643 -19.516417 -1.3769087 0 250 0 1.245759 0.61655915 299.01035 0
-9.5076971 -19.581673 -1.3721966 0 250 0 0.2739394 -0.96283323 297.62485 0
-9.4074297 -19.645935 -1.3953615 0 250 0 2.8964 0.55300617 295.97516 0
-9.2440367 -19.80813 -1.4114068 0 250 0 4.3778119 2.4767671 298.21332 0
-9.0813484 -19.960508 -1.4401908 0 250 0 3.7076063 -0.39340556 301.61301 0
-9.05546 -20.054188 -1.4424081 0 250 0 2.6253924 -0.66254407 303.04538 0
-8.9528542 -20.110464 -1.4307457 0 250 0 3.0494437 -0.47363627 303.39648 0
-8.8293104 -20.285067 -1.5043256 0 250 0 3.0018399 -1.5407884 304.69971 0
-8.7813215 -20.348978 -1.5194559 0 250 0 1.6376634 -0.83736092 303.0329 0
-8.6745272 -20.45422 -1.5294274 0 250 0 -1.0754509 -0.36767864 298.84686 0
-8.5271349 -20.583059 -1.5243616 0 250 0 1.1609908 1.4232869 294.87671 0
-8.3535337 -20.723471 -1.5591239 0 250 0 2.4020593 1.0618092 296.45822 0
-8.2911272 -20.779985 -1.5630287 0 250 0 3.2462573 -0.18995792 297.88849 0
-8.1839647 -20.876089 -1.5885198 0 250 0 3.2645187 -0.93119437 300.73975 0
-8.0332022 -21.038895 -1.5998425 0 250 0 1.6437142 -0.29586232 302.83591 0
-7.9730172 -21.088814 -1.5977576 0 250 0 2.6546361 -0.37056202 303.43756 0
-7.8704877 -21.194052 -1.6390959 0 250 0 2.035109 -2.3091662 304.20859 0
-7.7091465 -21.325619 -1.6882839 0 250 0 0.56919229 -1.470431 301.03415 0
-7.6726742 -21.39039 -1.6923069 0 250 0 -0.0090403762 -0.72361743 299.22522 0
-7.5351129 -21.450827 -1.6828493 0 250 0 2.0577347 0.49429286 296.85309 0
-7.3632078 -21.583883 -1.7151358 0 250 0 4.5723314 -1.7510924 298.42462 0
-7.2016115 -21.7554 -1.735788 0 250 0 2.8700414 -2.6158364 301.0473 0
-7.1641874 -21.842838 -1.7309123 0 250 0 1.4096131 -2.7785885 302.19708 0
-7.0602651 -21.917212 -1.7332739 0 250 0 1.8499305 -2.5394526 301.48495 0
-6.9226356 -22.089363 -1.7986065 0 250 0 1.3163584 -2.0287235 300.87592 0
-6.8718357 -22.144051 -1.8165675 0 250 0 0.21271633 -1.2821403 299.69046 0
-6.747448 -22.227356 -1.8104743 0 250 0 -0.080695122 0.72370279 296.92752 0
-6.5954599 -22.365959 -1.8089993 0 250 0 2.0349462 -0.47021744 294.9679 0
-6.4312391 -22.522882 -1.8423604 0 250 0 3.5292647 -1.1538535 296.76892 0
-6.388454 -22.577251 -1.876537 0 250 0 3.6121669 -2.6489601 297.61423 0
-6.269465 -22.673466 -1.8880877 0 250 0 3.7877192 -1.3941902 299.3912 0
-6.1236572 -22.823805 -1.8794725 0 250 0 3.2447293 -1.2561529 302.73358 0
-6.0810132 -22.875641 -1.8923227 0 250 0 3.6006169 -1.5097266 303.65375 0
-5.9921198 -22.974911 -1.9393041 0 250 0 2.2495992 -1.8616568 303.01114 0
-5.8354254 -23.126606 -1.973683 0 250 0 0.51047891 -2.5337875 298.90097 0
-5.7806234 -23.163031 -1.9742968 0 250 0 0.81479323 -1.7487622 297.07153 0
-5.6637115 -23.237316 -1.9658184 0 250 0 3.3758485 -0.53998262 296.14502 0
-5.5045142 -23.389482 -2.019259 0 250 0 4.7481413 -0.17129111 297.5462 0
-5.3356757 -23.546825 -2.028935 0 250 0 5.2401514 -1.0271817 299.52029 0
-5.312427 -23.633751 -2.0266728 0 250 0 3.4442794 -1.338973 300.47888 0
-5.2072921 -23.710196 -2.047657 0 250 0 3.9549699 0.59648722 298.82935 0
-5.0617275 -23.851627 -2.112504 0 250 0 2.050745 0.24895482 296.74548 0
-5.0001597 -23.901213 -2.1207986 0 250 0 2.3131912 0.63068974 295.82062 0
-4.8889604 -23.991631 -2.1334753 0 250 0 0.56172466 0.19855177 293.43701 0
-4.708982 -24.100943 -2.1353037 0 250 0 2.3549125 2.0232193 292.50763 0
-4.6582708 -24.143475 -2.1533055 0 250 0 3.0649228 1.8738284 293.5065 0
-4.5263085 -24.225311 -2.1842909 0 250 0 3.879226 1.7418219 296.97861 0
-4.3424644 -24.364218 -2.2231045 0 250 0 2.2770107 0.8437981 305.89307 0
-4.1390371 -24.469101 -2.2272594 0 250 0 1.9915996 1.8415686 312.90561 0
-4.0719361 -24.519388 -2.2321289 0 250 0 1.8967948 0.68597561 316.47083 0
-3.9553914 -24.618887 -2.287997 0 250 0 1.4383532 -1.3854882 320.04028 0
-3.736985 -24.720295 -2.2785797 0 250 0 0.054514393 -0.24731599 318.9577 0
-3.6690335 -24.729759 -2.2867494 0 250 0 1.1079094 0.052558601 318.40414 0
-3.5225616 -24.772675 -2.2792683 0 250 0 3.886483 -0.28832456 320.74008 0
-3.2986271 -24.827042 -2.3240988 0 250 0 5.506073 -1.9162698 327.93454 0
-3.0640423 -24.876825 -2.3072405 0 250 0 3.9189107 -2.3720493 339.75562 0
-2.9880397 -24.872953 -2.3002663 0 250 0 2.3637683 -3.54951 342.30658 0
-2.8474877 -24.884329 -2.3063252 0 250 0 5.2568378 -3.0722346 348.56454 0
-2.6159596 -24.902529 -2.3700552 0 250 0 4.7412405 -3.3774552 352.5289 0
-2.5387666 -24.886015 -2.3555679 0 250 0 3.6075995 -2.4023833 352.82635 0
-2.3930836 -24.884951 -2.3553913 0 250 0 3.0628102 -1.9135569 354.21365 0
-2.1793244 -24.853645 -2.3513303 0 250 0 4.6772614 -2.3325803 357.03372 0
-2.1077821 -24.838989 -2.3676379 0 250 0 5.2484508 -2.420399 358.60782 0
-1.9549471 -24.806179 -2.3719225 0 250 0 5.6878996 -4.4466987 363.04971 0
-1.7123626 -24.775196 -2.3629298 0 250 0 4.0872188 -5.7418909 369.23535 0
-1.5049728 -24.71287 -2.3445256 0 250 0 6.0819874 -6.4208283 373.13879 0
-1.4368212 -24.690897 -2.3667107 0 250 0 6.5183887 -7.6070952 373.89587 0
-1.3032211 -24.641825 -2.3967404 0 250 0 5.0062194 -6.2504215 373.86789 0
-1.1004524 -24.565346 -2.3835602 0 250 0 3.1240115 -3.6603017 373.38455 0
-1.0341216 -24.530556 -2.3631563 0 250 0 3.9186141 -2.9315853 373.39001 0
-0.91184926 -24.460421 -2.3843515 0 250 0 4.9288096 -4.5946603 375.00571 0
-0.69342095 -24.363012 -2.3935893 0 250 0 5.7433991 -7.2050719 380.08228 0
-0.48641557 -24.272346 -2.3637455 0 250 0 4.1182985 -7.8693657 384.03696 0
-0.44475332 -24.227419 -2.3576767 0 250 0 4.7456198 -7.1730237 384.6944 0
-0.31643587 -24.157724 -2.3429968 0 250 0 5.2036123 -8.6507664 386.83597 0
-0.13984044 -24.024073 -2.3794611 0 250 0 4.5735826 -8.1634521 384.7836 0
-0.094676346 -23.974537 -2.3660345 0 250 0 4.517179 -8.1029434 384.90027 0
0.028958524 -23.905399 -2.3765631 0 250 0 4.9699101 -7.8496928 382.76248 0
0.18659748 -23.767735 -2.362668 0 250 0 8.5154486 -5.8534584 382.61646 0
0.23645832 -23.712732 -2.3700552 0 250 0 8.6641073 -6.196454 384.06479 0
0.35999256 -23.616547 -2.3892641 0 250 0 7.6753287 -7.8643227 387.24414 0
0.56237221 -23.473728 -2.3594761 0 250 0 5.5135508 -5.8156676 391.56128 0
0.71542609 -23.307781 -2.3464012 0 250 0 6.1973171 -7.6150069 392.73398 0
0.76740283 -23.251472 -2.367655 0 250 0 6.3363585 -8.4895792 392.96396 0
0.87712783 -23.136574 -2.3838756 0 250 0 5.2494073 -8.040369 390.84808 0
1.0150564 -22.984184 -2.3707902 0 250 0 5.1348019 -5.4690084 387.29742 0
1.0565714 -22.932365 -2.3587987 0 250 0 6.9926968 -4.3940663 387.31027 0
1.15997 -22.835756 -2.3719952 0 250 0 8.075037 -4.6297274 387.6749 0
1.3485309 -22.678993 -2.3852541 0 250 0 7.6090932 -5.6048427 388.41159 0
1.5347378 -22.535727 -2.3415675 0 250 0 4.8796329 -7.322999 389.76547 0
1.5717152 -22.481115 -2.33864 0 250 0 5.8649487 -6.8573132 390.19763 0
1.6862773 -22.385502 -2.3507216 0 250 0 6.1301131 -7.6907997 391.29846 0
1.8521026 -22.212736 -2.3794861 0 250 0 4.5510583 -4.4929795 389.05597 0
1.9205931 -22.160431 -2.3598578 0 250 0 4.6673317 -4.1734109 388.36478 0
2.0046792 -22.035646 -2.3369474 0 250 0 6.1039457 -3.3092151 384.64227 0
2.1801333 -21.889175 -2.3526027 0 250 0 9.2842188 -5.0109096 384.94699 0
2.3414445 -21.708607 -2.3496768 0 250 0 8.2491589 -4.2889805 386.90356 0
2.4097805 -21.658445 -2.3334291 0 250 0 8.4488173 -4.6360559 389.92108 0
2.5316665 -21.556135 -2.3003447 0 250 0 5.21627 -7.4568472 391.1832 0
2.7031534 -21.38751 -2.3200729 0 250 0 5.7483754 -9.2121277 392.31345 0
2.7691469 -21.336266 -2.3521771 0 250 0 5.0399966 -8.5467558 390.44711 0
2.8510439 -21.193525 -2.3287466 0 250 0 5.149714 -6.1964812 387.78622 0
2.9947112 -21.027037 -2.2817512 0 250 0 5.7947636 -6.2296481 386.27591 0
3.0508816 -20.974802 -2.2769542 0 250 0 7.3458972 -6.8419027 385.91324 0
3.1491385 -20.854797 -2.3035922 0 250 0 8.541894 -7.2550912 386.11795 0
3.3145034 -20.682945 -2.304172 0 250 0 8.6461039 -8.8137922 390.52725 0
3.4675333 -20.490471 -2.2403121 0 250 0 6.4324002 -9.8625011 394.07132 0
3.5322671 -20.431021 -2.2297933 0 250 0 6.8881044 -11.569969 395.82202 0
3.6566727 -20.313877 -2.3051813 0 250 0 5.7373214 -12.762958 394.79507 0
3.7979395 -20.133884 -2.2904794 0 250 0 5.8622465 -10.796959 389.61084 0
3.8359647 -20.074789 -2.2723095 0 250 0 6.7709951 -9.5960855 388.61731 0
3.9429162 -19.977467 -2.2812774 0 250 0 9.074976 -10.479468 386.65262 0
4.0605187 -19.794296 -2.3114517 0 250 0 10.41203 -6.8782606 385.9761 0
4.1286502 -19.742994 -2.3211775 0 250 0 9.1832714 -7.0210662 387.23901 0
4.2590728 -19.639284 -2.2876525 0 250 0 7.3417902 -7.4237528 388.20111 0
4.4000335 -19.476181 -2.232358 0 250 0 9.0484676 -9.650301 389.36465 0
4.5780907 -19.310703 -2.2871802 0 250 0 5.9896069 -10.728899 388.53751 0
4.6284852 -19.247343 -2.2847965 0 250 0 4.6658797 -10.020015 387.29529 0
4.7440085 -19.14784 -2.2591624 0 250 0 4.5775404 -9.6077776 385.25262 0
4.8848691 -18.99497 -2.2556031 0 250 0 8.5847769 -9.1220026 384.67084 0
4.9350438 -18.945702 -2.2746446 0 250 0 9.2537737 -8.4346189 384.78137 0
5.0425711 -18.83169 -2.266927 0 250 0 9.5383081 -10.974346 387.35052 0
5.2352252 -18.675283 -2.2464249 0 250 0 6.1414933 -12.103728 392.47168 0
5.3873744 -18.508215 -2.2199438 0 250 0 8.6431561 -12.536751 393.17526 0
5.4472089 -18.450983 -2.2533004 0 250 0 8.0959606 -13.138154 392.9335 0
5.549561 -18.333874 -2.2727058 0 250 0 6.6755886 -12.774841 390.40219 0
5.7020679 -18.179283 -2.2601452 0 250 0 5.5289569 -11.436908 385.32135 0
5.7441435 -18.126554 -2.2308071 0 250 0 7.7364688 -10.623364 384.64175 0
5.8354692 -18.029884 -2.2255223 0 250 0 9.2793837 -12.547204 383.35983 0
5.9802437 -17.875929 -2.2409253 0 250 0 9.3557816 -14.507107 385.80457 0
6.0077066 -17.813147 -2.2158265 0 250 0 9.5796833 -15.111694 387.45337 0
6.1577191 -17.711983 -2.1891215 0 250 0 7.307158 -16.608154 389.64062 0
6.2790184 -17.56074 -2.1888845 0 250 0 7.2745247 -18.535061 392.36237 0
6.4559274 -17.400774 -2.2453938 0 250 0 4.1951838 -15.773522 390.78323 0
6.4887791 -17.330616 -2.2387135 0 250 0 3.9958069 -14.823068 390.20218 0
6.5939531 -17.237926 -2.2162824 0 250 0 3.4745629 -13.089368 388.92236 0
6.7284603 -17.08016 -2.2219784 0 250 0 7.6073976 -11.233304 386.92889 0
6.7734666 -17.018393 -2.2283669 0 250 0 8.0901928 -10.82364 387.55255 0
6.8935013 -16.905392 -2.2405913 0 250 0 8.6250601 -12.224685 389.19559 0
7.0777974 -16.748322 -2.1824365 0 250 0 6.815237 -13.93208 391.20688 0
7.2218819 -16.591194 -2.1727157 0 250 0 7.611196 -14.081751 392.5076 0
7.2864122 -16.545092 -2.1994724 0 250 0 7.2054987 -14.442581 392.4967 0
7.3738737 -16.418249 -2.2189696 0 250 0 5.7771788 -12.437859 390.42841 0
7.5406995 -16.278645 -2.1987667 0 250 0 6.0007467 -11.012518 388.07098 0
7.5999241 -16.233141 -2.1888318 0 250 0 8.244215 -9.1301413 387.42819 0
7.7049198 -16.113308 -2.1902688 0 250 0 8.7671385 -9.2420626 386.27011 0
7.8780522 -15.937209 -2.1849325 0 250 0 8.4693909 -11.716979 390.51981 0
7.9400187 -15.888215 -2.1858501 0 250 0 7.8080935 -12.043137 392.60733 0
8.0654001 -15.793863 -2.1656446 0 250 0 7.0606298 -11.893114 392.71857 0
8.2134151 -15.63359 -2.1573076 0 250 0 7.5728455 -13.466182 395.16348 0
8.3674583 -15.470659 -2.1769223 0 250 0 5.5118423 -12.751707 394.12811 0
8.4261522 -15.42125 -2.1678274 0 250 0 4.4328113 -12.720275 394.09122 0
8.5081272 -15.313404 -2.1588473 0 250 0 6.0495114 -11.124426 392.01791 0
8.6147785 -15.124843 -2.1581669 0 250 0 8.172204 -11.26016 394.25879 0
8.7280035 -14.924162 -2.1574512 0 250 0 7.4044156 -14.338926 401.23239 0
8.7800474 -14.870138 -2.1559014 0 250 0 7.121202 -13.913912 404.98154 0
8.8395166 -14.749958 -2.1383123 0 250 0 4.8001385 -13.787621 409.95486 0
8.9547596 -14.553519 -2.1409805 0 250 0 3.5963728 -14.102221 416.67007 0
9.0037079 -14.489456 -2.158206 0 250 0 3.4951332 -13.949316 416.68008 0
9.0476904 -14.35149 -2.1532159 0 250 0 3.5996702 -11.206546 415.71808 0
9.0979843 -14.148787 -2.1054051 0 250 0 3.5750904 -10.36585 416.23157 0
9.121129 -14.078377 -2.0907366 0 250 0 4.0279236 -10.908096 418.0954 0
9.1552572 -13.93247 -2.1191022 0 250 0 4.476244 -12.564829 422.13477 0
9.1842813 -13.711402 -2.1185045 0 250 0 2.5144715 -14.396871 428.85544 0
9.2146006 -13.510785 -2.0583589 0 250 0 0.98679501 -12.830495 437.41699 0
9.2179794 -13.442238 -2.0470731 0 250 0 1.5754466 -13.270517 440.86807 0
9.2452106 -13.287403 -2.0695322 0 250 0 0.96630877 -14.724634 444.70584 0
9.2550907 -13.061336 -2.0541787 0 250 0 -0.54044366 -12.051239 446.02841 0
9.2718935 -12.977023 -2.0380957 0 250 0 -1.9187335 -12.656212 445.2814 0
9.2461796 -12.838172 -2.014745 0 250 0 1.7981453 -11.101578 444.42288 0
9.2195568 -12.619666 -2.0232112 0 250 0 3.1512825 -13.818579 448.85587 0
9.2178774 -12.384356 -2.0239251 0 250 0 1.4310474 -16.100843 455.47961 0
9.2528534 -12.295363 -2.0009644 0 250 0 -0.70439607 -15.530605 457.27151 0
9.200511 -12.152573 -1.9764496 0 250 0 -0.89496291 -14.20702 458.18317 0
9.1745739 -11.911043 -1.9781348 0 250 0 -0.54212654 -16.467934 461.45544 0
9.1596603 -11.832817 -1.9818488 0 250 0 -0.37270841 -15.220357 460.97278 0
9.1309977 -11.676678 -1.9303372 0 250 0 -2.0738323 -14.752933 461.2417 0
9.0315495 -11.435925 -1.8893917 0 250 0 1.3759516 -13.323363 459.14508 0
8.9731874 -11.225585 -1.8846495 0 250 0 3.045805 -14.879812 464.29517 0
8.9476147 -11.158342 -1.8694506 0 250 0 2.343962 -15.474055 466.12064 0
8.9113131 -11.021249 -1.8313596 0 250 0 -1.6011851 -15.143451 473.17264 0
8.8502684 -10.794929 -1.7560875 0 250 0 -2.9610209 -13.718443 475.22858 0
8.8302708 -10.725945 -1.7245779 0 250 0 -3.1121666 -14.511219 476.36725 0
8.7901211 -10.562996 -1.7352065 0 250 0 -3.0658128 -17.230703 476.36932 0
8.7168646 -10.358204 -1.707948 0 250 0 -3.1096675 -16.220863 473.64035 0
8.7188892 -10.276463 -1.687394 0 250 0 -3.9370546 -16.435791 472.33472 0
8.6511841 -10.16855 -1.68534 0 250 0 -0.58639562 -13.959333 469.84528 0
8.5437508 -9.9818497 -1.6567073 0 250 0 1.5003474 -16.08106 473.5004 0
8.4752636 -9.780282 -1.6501253 0 250 0 -0.65381801 -16.009398 476.89767 0
0 0 0 1 0 0 0 1 0 0 0 1 0 0 0 0 0 500 1 0 0
