ply
format ascii 1.0
comment PCL generated
element vertex 525
property float x
property float y
property float z
property uchar red
property uchar green
property uchar blue
property float nx
property float ny
property float nz
property float curvature
element camera 1
property float view_px
property float view_py
property float view_pz
property float x_axisx
property float x_axisy
property float x_axisz
property float y_axisx
property float y_axisy
property float y_axisz
property float z_axisx
property float z_axisy
property float z_axisz
property float focal
property float scalex
property float scaley
property float centerx
property float centery
property int viewportx
property int viewporty
property float k1
property float k2
end_header
0.16060711 -0.18638156 -0.1046176 0 250 0 0.12272239 -9.5339212 103.56214 0
0.28326848 -0.32214496 -0.10549224 0 250 0 0.37996876 -9.8761082 107.99798 0
0.37452728 -0.41694358 -0.10259466 0 250 0 1.0020597 -9.8127489 109.92086 0
0.45433667 -0.50464892 -0.099528864 0 250 0 1.3766992 -9.8019686 111.18335 0
0.51580656 -0.55579722 -0.095720164 0 250 0 1.6506397 -9.5377159 112.42139 0
0.54904687 -0.56433618 -0.070923567 0 250 0 1.7030343 -9.5839787 114.44838 0
0.59221572 -0.60473686 -0.058558758 0 250 0 1.7897629 -9.9602537 115.10851 0
0.62199551 -0.61595106 -0.042457376 0 250 0 2.7767937 -11.367127 115.82906 0
0.63443834 -0.60940659 -0.035124227 0 250 0 3.366715 -12.160392 115.51547 0
0.62465864 -0.58216006 -0.042991973 0 250 0 3.6565886 -10.906962 114.29784 0
0.63124317 -0.58750373 -0.039069589 0 250 0 3.5639613 -10.535028 113.75981 0
0.60518342 -0.55509692 -0.029772233 0 250 0 2.559618 -10.997402 112.96871 0
0.5373531 -0.49749187 0.015101166 0 250 0 2.6513438 -11.280171 110.79246 0
0.5422911 -0.49652535 0.01342469 0 250 0 2.2318418 -12.083086 110.38206 0
0.50567383 -0.48595229 0.013438182 0 250 0 2.1870406 -10.384871 110.35219 0
0.44155142 -0.40491697 0.0094654197 0 250 0 2.1859558 -8.1231546 111.91138 0
0.36659658 -0.29003552 0.021294678 0 250 0 1.2980949 -9.9243383 114.28962 0
0.33488622 -0.28002915 0.032633163 0 250 0 0.97715658 -9.3947906 114.86449 0
0.29654512 -0.21533412 0.060209006 0 250 0 0.40869176 -10.556551 117.42046 0
0.21035491 -0.13938709 0.073638983 0 250 0 2.6448438 -9.9524069 119.74979 0
0.19449255 -0.10319359 0.066937447 0 250 0 2.2820041 -9.6473265 120.07514 0
0.11783677 -0.04409137 0.083981611 0 250 0 1.3032477 -9.9889011 119.26489 0
0.0093721449 0.056029189 0.12261795 0 250 0 0.85790271 -9.8049297 117.35448 0
-0.016467163 0.066281624 0.11615867 0 250 0 0.88224918 -10.9715 116.73972 0
-0.081893787 0.12543419 0.1025912 0 250 0 2.0491955 -9.1533566 116.47168 0
-0.19360523 0.23682129 0.098598219 0 250 0 2.3387971 -9.0610199 118.50599 0
-0.31190154 0.36146566 0.13576157 0 250 0 1.9354168 -8.2030621 119.94698 0
-0.33333117 0.41122633 0.14844084 0 250 0 0.97802758 -9.4612436 121.20979 0
-0.39225855 0.45409656 0.15224558 0 250 0 2.4233091 -9.7493038 121.20624 0
-0.48985597 0.58980578 0.13045192 0 250 0 3.2234924 -9.9742393 120.81006 0
-0.53723425 0.61831582 0.14779295 0 250 0 3.2719462 -9.7354736 119.93669 0
-0.6051625 0.71949643 0.14164943 0 250 0 1.5830759 -11.608903 118.46613 0
-0.72852963 0.80027229 0.16546436 0 250 0 3.0918403 -12.154372 115.02212 0
-0.8583256 0.89970964 0.15908559 0 250 0 4.6588979 -10.229546 116.56945 0
-0.8831538 0.96203482 0.15763117 0 250 0 3.9072683 -11.166394 117.28638 0
-0.95276034 1.043079 0.11497983 0 250 0 2.3983331 -10.912831 117.04925 0
-1.0789068 1.2163709 0.16258264 0 250 0 0.91684508 -10.597018 119.31077 0
-1.1363456 1.2036098 0.17102766 0 250 0 1.9828943 -10.128653 118.92347 0
-1.1904451 1.3358294 0.17866997 0 250 0 4.0245333 -11.254315 120.22955 0
-1.3226351 1.4560902 0.15909247 0 250 0 2.3427751 -10.78268 119.33469 0
-1.3435334 1.4973639 0.15653324 0 250 0 0.57046849 -11.509045 118.44464 0
-1.423524 1.543499 0.18450046 0 250 0 1.9145677 -11.468514 115.43161 0
-1.5341907 1.6446289 0.14991097 0 250 0 2.6581221 -10.482035 113.66002 0
-1.6867907 1.7591332 0.15754341 0 250 0 2.2044542 -10.866772 114.78257 0
-1.7151009 1.8067105 0.14360675 0 250 0 1.6083435 -10.32191 115.22667 0
-1.8206004 1.8893297 0.18370433 0 250 0 0.84561938 -9.8136482 117.31681 0
-1.9380112 2.0121291 0.23031366 0 250 0 1.0784721 -10.581152 119.28378 0
-1.9675819 2.0626943 0.23247875 0 250 0 1.3727536 -11.653538 120.05344 0
-2.0348141 2.1569996 0.20658258 0 250 0 1.6086997 -12.464203 118.89606 0
-2.1633239 2.2567527 0.19685133 0 250 0 -0.12520415 -11.731274 115.48709 0
-2.2098861 2.2849209 0.21554299 0 250 0 0.65935761 -11.25992 114.73255 0
-2.2893903 2.3347907 0.19598761 0 250 0 2.0767982 -10.896285 113.77735 0
-2.4302752 2.4413133 0.20769396 0 250 0 2.7852468 -10.429403 116.37568 0
-2.5469167 2.5556061 0.20127843 0 250 0 1.9726765 -10.220069 118.56631 0
-2.5996928 2.5867236 0.22037522 0 250 0 2.2582076 -10.088418 120.49121 0
-2.6398287 2.6930513 0.22045071 0 250 0 0.41441399 -10.644795 123.07904 0
-2.7680354 2.8047919 0.22979571 0 250 0 1.8768607 -10.488337 123.22654 0
-2.800715 2.845835 0.21010052 0 250 0 1.448525 -10.831995 122.76265 0
-2.8820961 2.9141235 0.18656515 0 250 0 0.23929399 -9.5109329 119.92165 0
-3.0087886 3.0155396 0.22497143 0 250 0 1.7237371 -9.2954111 117.0573 0
-3.1533341 3.1321809 0.22968061 0 250 0 3.5561275 -8.6751862 116.65508 0
-3.1971402 3.1737471 0.22290455 0 250 0 2.8568404 -8.934804 117.8496 0
-3.2714894 3.2894859 0.20302999 0 250 0 0.74072701 -10.850707 119.52292 0
-3.3982155 3.3736696 0.20804712 0 250 0 -2.5217659 -11.255889 121.63097 0
-3.4357026 3.3944514 0.20882088 0 250 0 -1.836509 -10.823677 121.37527 0
-3.5247095 3.4826744 0.22790313 0 250 0 -0.39999411 -11.38409 122.30033 0
-3.6254065 3.6219125 0.1872277 0 250 0 -0.083820716 -11.90308 119.41183 0
-3.7589293 3.6686695 0.1976248 0 250 0 1.1103395 -10.149574 113.87499 0
-3.8141906 3.695682 0.20999479 0 250 0 3.0581329 -9.23563 113.961 0
-3.8918114 3.7752757 0.17678536 0 250 0 3.4069839 -9.7309713 115.28213 0
-4.0501518 3.8994472 0.16500044 0 250 0 2.5716555 -10.960712 120.96027 0
-4.0940752 3.9227049 0.18262966 0 250 0 2.7425454 -11.180743 122.8433 0
-4.1532731 4.0104556 0.14859898 0 250 0 0.10568831 -10.897118 122.57591 0
-4.2730389 4.1207581 0.16144262 0 250 0 0.99999917 -11.402665 122.94859 0
-4.3053641 4.1528225 0.1295924 0 250 0 1.171928 -11.296155 121.88405 0
-4.3826709 4.2605433 0.1259874 0 250 0 0.69943112 -11.327253 119.99279 0
-4.5129266 4.3024702 0.14917821 0 250 0 1.542904 -9.8720818 116.24488 0
-4.6320844 4.3958497 0.12946886 0 250 0 2.6031134 -10.406879 120.11963 0
-4.6737099 4.4552612 0.13214161 0 250 0 2.3804963 -10.788868 122.02344 0
-4.7495608 4.5482035 0.11648291 0 250 0 1.5910267 -12.297667 124.19434 0
-4.8652477 4.6674461 0.12493633 0 250 0 -0.31283358 -12.801702 123.71349 0
-4.8658814 4.6999125 0.1236145 0 250 0 1.1008213 -11.553966 123.42071 0
-4.9584489 4.8305058 0.11551151 0 250 0 1.4320589 -12.897355 122.92989 0
-5.0819521 4.9504404 0.10169621 0 250 0 0.92753237 -12.227081 120.27286 0
-5.1866841 4.9967179 0.11490275 0 250 0 1.5084251 -11.694509 117.93076 0
-5.2285485 5.0303278 0.12103116 0 250 0 2.8778796 -11.203621 118.281 0
-5.288528 5.0849538 0.09568134 0 250 0 2.783273 -10.590059 120.1571 0
-5.4284196 5.1756964 0.082956158 0 250 0 1.9826064 -12.466869 128.67586 0
-5.4698024 5.2174659 0.085056797 0 250 0 0.0062269354 -11.407696 131.34685 0
-5.558084 5.3072233 0.088457383 0 250 0 -1.838398 -11.350119 136.49635 0
-5.7297273 5.392838 0.095187351 0 250 0 -2.0734355 -10.176183 140.92752 0
-5.7640052 5.4085321 0.075003013 0 250 0 -2.4508045 -11.111041 142.07219 0
-5.8651681 5.4500751 0.061373044 0 250 0 -2.4598875 -11.188202 143.96767 0
-6.0150466 5.5397992 0.060993642 0 250 0 -4.1630616 -12.12678 146.57564 0
-6.1735888 5.5655775 0.064691499 0 250 0 -0.53102535 -10.305873 147.8119 0
-6.2070804 5.5512404 0.039650042 0 250 0 -0.71754903 -9.867033 149.42963 0
-6.3698554 5.5693588 0.043235585 0 250 0 -0.78018057 -10.048428 155.83055 0
-6.5320363 5.5955153 0.021791022 0 250 0 -2.3116188 -8.8948965 163.8748 0
-6.6055212 5.596539 0.021201145 0 250 0 -3.9800625 -9.4520636 165.29433 0
-6.7008796 5.5775414 0.013228894 0 250 0 -2.1315706 -7.9277453 169.06963 0
-6.8904843 5.6045198 -0.020170882 0 250 0 -1.6445812 -8.5302153 170.07642 0
-7.0688853 5.6151328 -0.03564024 0 250 0 -3.6979048 -9.3229399 170.72736 0
-7.0982819 5.5683713 -0.03761952 0 250 0 -2.9561288 -7.8030992 170.14619 0
-7.2228546 5.5594544 -0.037904248 0 250 0 -0.90659666 -7.3070631 173.20306 0
-7.4170871 5.4757252 -0.061422627 0 250 0 -0.75093448 -7.8826637 181.52289 0
-7.4691615 5.4708672 -0.089210249 0 250 0 -2.224189 -7.3084631 181.14212 0
-7.6079006 5.4491544 -0.081063032 0 250 0 -3.7678206 -5.6107163 182.41925 0
-7.785913 5.3734879 -0.07267148 0 250 0 -2.1394 -4.7711716 183.88997 0
-7.8112216 5.3408213 -0.098409452 0 250 0 -2.6881621 -6.1357713 181.10817 0
-7.8984113 5.2851582 -0.11472913 0 250 0 -1.8080716 -5.659668 177.12758 0
-7.9069843 5.1747437 -0.12430085 0 250 0 -3.0988331 -5.8896255 172.52388 0
-8.089716 5.0867715 -0.11013657 0 250 0 -0.25217241 -6.2085428 171.55948 0
-8.1403685 5.0396428 -0.12684022 0 250 0 -0.62049204 -7.2709708 170.05112 0
-8.2541189 4.955555 -0.14711276 0 250 0 -2.3496668 -9.578517 169.89201 0
-8.334053 4.8354077 -0.15303171 0 250 0 -3.1118309 -7.3196392 170.27904 0
-8.3750973 4.7986293 -0.15133853 0 250 0 -1.6254207 -5.0923009 169.11618 0
-8.4945898 4.7262902 -0.15296499 0 250 0 -1.0237696 -7.2580957 167.83295 0
-8.6482286 4.6147265 -0.14452906 0 250 0 -2.2340531 -3.7097123 161.8533 0
-8.6893759 4.5748563 -0.1232226 0 250 0 -2.1542206 -4.3726897 158.29547 0
-8.7345982 4.4962163 -0.1277153 0 250 0 -1.2930461 -2.6729119 153.89703 0
-8.8368578 4.3803353 -0.12845358 0 250 0 0.060433798 -3.3104765 153.42902 0
-8.9496918 4.2597389 -0.12004887 0 250 0 -1.2964406 -5.6492476 154.87509 0
-8.9825621 4.2249899 -0.11848453 0 250 0 -0.56925184 -5.5715685 154.08571 0
-9.0446033 4.1636 -0.12077758 0 250 0 -2.4980917 -5.6886978 150.86873 0
-9.1846838 4.0843306 -0.11950446 0 250 0 -1.8401423 -5.2641897 148.61177 0
-9.1954365 4.0230312 -0.15001099 0 250 0 -1.9239918 -5.6335745 145.30394 0
-9.2949104 3.9300487 -0.15380444 0 250 0 -1.1392636 -7.4469066 142.68102 0
-9.4078131 3.8023016 -0.19584355 0 250 0 -1.2729565 -7.2089434 137.94809 0
-9.5222511 3.6575327 -0.20658657 0 250 0 0.21843477 -6.8801212 137.72397 0
-9.5831375 3.6178756 -0.21228907 0 250 0 0.26233354 -7.1374846 136.1963 0
-9.6730223 3.5215588 -0.21676709 0 250 0 0.25905353 -6.9043365 136.04823 0
-9.8177624 3.4147429 -0.21101092 0 250 0 -0.7438665 -6.087276 133.1169 0
-9.8467312 3.3651299 -0.20839551 0 250 0 0.58017313 -4.8738418 131.41306 0
-9.9394493 3.2981169 -0.21284373 0 250 0 -0.070796102 -5.8736796 130.32411 0
-10.057327 3.1669135 -0.23274115 0 250 0 -0.33158198 -5.2162328 126.47916 0
-10.081738 3.1201618 -0.2391808 0 250 0 -1.1516199 -4.7878475 123.55757 0
-10.151292 3.0291982 -0.22544529 0 250 0 -0.76430112 -3.9113719 119.55795 0
-10.251561 2.8919063 -0.22361837 0 250 0 1.2590039 -3.9292178 117.90706 0
-10.364881 2.7429812 -0.24194694 0 250 0 1.8417435 -5.9033251 120.47384 0
-10.420972 2.6845551 -0.22457629 0 250 0 1.2436836 -6.1265278 120.81107 0
-10.523849 2.6001265 -0.23871596 0 250 0 -0.4061788 -7.0740242 120.56608 0
-10.649193 2.4671896 -0.22754365 0 250 0 0.86437398 -6.2434831 118.91966 0
-10.686606 2.4293213 -0.25193903 0 250 0 0.8775208 -6.8532171 116.79848 0
-10.763041 2.3330317 -0.26063895 0 250 0 1.4940304 -6.5010953 114.55811 0
-10.878674 2.179076 -0.2475505 0 250 0 0.16254324 -6.7540464 112.77325 0
-10.956133 2.0206184 -0.25359628 0 250 0 1.9088093 -7.0041723 112.41022 0
-10.970018 1.9608272 -0.26990822 0 250 0 1.7007 -6.3864698 111.68729 0
-11.025703 1.8304083 -0.27009085 0 250 0 1.3051732 -6.6155071 115.41719 0
-11.09337 1.6389579 -0.29405785 0 250 0 -0.10247355 -5.9796257 121.99297 0
-11.141874 1.5870099 -0.28723997 0 250 0 -0.63848931 -5.7925458 123.49843 0
-11.157094 1.4632443 -0.28432915 0 250 0 0.60754275 -4.8275437 125.46967 0
-11.229831 1.2714895 -0.29754522 0 250 0 0.05749242 -7.7591567 128.05351 0
-11.267845 1.0826346 -0.30423689 0 250 0 -1.5736647 -7.8289447 127.0688 0
-11.28042 1.0291758 -0.30904675 0 250 0 -1.1855613 -7.3175797 124.67838 0
-11.270887 0.90293819 -0.28934279 0 250 0 0.78689378 -6.5932727 123.71461 0
-11.275692 0.72118908 -0.33008432 0 250 0 1.6998756 -7.0002356 126.6506 0
-11.27072 0.66165495 -0.34511146 0 250 0 2.3812649 -6.6629763 127.68127 0
-11.26264 0.53143656 -0.33930773 0 250 0 2.4234295 -4.716538 131.16588 0
-11.263332 0.34369808 -0.32402533 0 250 0 2.3619976 -4.6738534 137.15009 0
-11.261392 0.15112934 -0.341187 0 250 0 3.0218022 -5.4532294 138.81035 0
-11.257649 0.085818745 -0.35678864 0 250 0 2.870317 -5.2674913 137.20618 0
-11.240161 -0.048381329 -0.35820135 0 250 0 -0.11482959 -5.1486893 135.87022 0
-11.224904 -0.24030922 -0.33910266 0 250 0 0.54752046 -5.0131903 132.62352 0
-11.207197 -0.29813042 -0.34633043 0 250 0 1.5967549 -4.9126654 131.06325 0
-11.181446 -0.42265713 -0.36132935 0 250 0 3.7781396 -4.4877043 131.53697 0
-11.163385 -0.62511456 -0.39785081 0 250 0 3.141036 -4.4631882 134.79851 0
-11.150024 -0.69586992 -0.38726008 0 250 0 3.5316386 -3.8656485 135.33144 0
-11.166121 -0.83204734 -0.37909797 0 250 0 1.5246086 -4.6643734 136.84827 0
-11.134507 -1.0140646 -0.37131932 0 250 0 3.8457608 -5.3831677 136.79413 0
-11.101341 -1.1966606 -0.40808704 0 250 0 2.3109109 -4.9867048 132.70084 0
-11.07229 -1.2548822 -0.40162313 0 250 0 0.81762922 -5.885973 130.91847 0
-11.089325 -1.3767891 -0.41544378 0 250 0 -0.27442804 -6.6238589 126.98143 0
-11.000978 -1.5424849 -0.39916578 0 250 0 1.269025 -5.8225365 124.1842 0
-10.978543 -1.5986278 -0.40792248 0 250 0 1.5993283 -6.3788543 123.95242 0
-10.964263 -1.722137 -0.42881405 0 250 0 2.8676689 -6.9410825 123.30998 0
-10.93837 -1.9081949 -0.42946208 0 250 0 3.1777828 -5.0457869 124.48306 0
-10.930723 -1.9638339 -0.42745408 0 250 0 2.0159163 -4.4724178 121.68378 0
-10.900287 -2.0898855 -0.40180507 0 250 0 3.6256623 -3.5508049 118.94914 0
-10.89191 -2.2944169 -0.44247878 0 250 0 1.5935419 -5.7552266 114.62165 0
-10.854564 -2.4934275 -0.41682777 0 250 0 -1.9198703 -3.970633 108.73946 0
-10.855999 -2.5597401 -0.37473163 0 250 0 -2.3692772 -4.6873517 105.90843 0
-10.839499 -2.662292 -0.37646586 0 250 0 -1.4469392 -4.1389523 101.4481 0
-10.820955 -2.8442061 -0.38375124 0 250 0 2.1470828 -4.4764867 99.960487 0
-10.843926 -2.9155159 -0.38701183 0 250 0 2.4220192 -4.949913 99.317932 0
-10.844882 -3.0505717 -0.3934294 0 250 0 0.58223063 -6.0811234 97.839981 0
-10.856453 -3.2367897 -0.3734301 0 250 0 -0.84946853 -6.6262221 98.247459 0
-10.844984 -3.4285536 -0.39152801 0 250 0 0.73638028 -6.5180049 98.311165 0
-10.850114 -3.4958773 -0.40383768 0 250 0 0.38003823 -6.6825309 95.950455 0
-10.841588 -3.6316304 -0.40908924 0 250 0 -0.6946094 -8.4973011 91.363327 0
-10.802926 -3.8217256 -0.4121834 0 250 0 1.005416 -6.5069437 84.468781 0
-10.809712 -3.8845904 -0.41085854 0 250 0 1.8861988 -5.9213057 83.0718 0
-10.781596 -4.0145006 -0.44563574 0 250 0 1.590727 -5.3293242 82.386917 0
-10.773119 -4.2386417 -0.46265766 0 250 0 0.23258317 -6.3334608 84.363396 0
-10.740035 -4.305397 -0.45670572 0 250 0 1.342682 -5.4366288 85.920967 0
-10.751237 -4.44065 -0.44594532 0 250 0 0.94604301 -5.5395651 89.506233 0
-10.745179 -4.6478271 -0.45720804 0 250 0 3.9542763 -5.0470381 90.531151 0
-10.717113 -4.8497076 -0.50473261 0 250 0 0.46040428 -4.8879347 85.224098 0
-10.721763 -4.9206686 -0.48860353 0 250 0 0.3559148 -4.1231656 83.449287 0
-10.685601 -5.0428176 -0.48035687 0 250 0 1.1405233 -4.1747351 78.901398 0
-10.65229 -5.2336092 -0.52154869 0 250 0 2.590065 -4.1329064 78.517929 0
-10.64084 -5.3095846 -0.52002078 0 250 0 2.07639 -4.2172751 78.683716 0
-10.617249 -5.4550595 -0.52833128 0 250 0 1.4498805 -4.9310184 79.618881 0
-10.596483 -5.6574106 -0.51072115 0 250 0 0.83125633 -6.4203753 83.546768 0
-10.585651 -5.853888 -0.52978539 0 250 0 1.8132056 -5.7624693 83.490685 0
-10.576705 -5.9157372 -0.55599475 0 250 0 1.6484241 -5.6751399 82.309685 0
-10.570888 -6.0452738 -0.58366895 0 250 0 -1.041961 -5.0211678 78.474327 0
-10.558963 -6.2338614 -0.58405823 0 250 0 -1.0244228 -3.4872942 70.93177 0
-10.545152 -6.2955904 -0.58507758 0 250 0 0.376715 -3.2217782 69.053192 0
-10.532607 -6.4194489 -0.63137674 0 250 0 0.51853615 -2.0373282 66.940269 0
-10.511939 -6.6494226 -0.64296579 0 250 0 -0.4497382 -3.0556879 69.642693 0
-10.520844 -6.8505511 -0.61681563 0 250 0 0.63289678 -4.016129 73.009331 0
-10.500717 -6.9026041 -0.62313247 0 250 0 2.1117694 -3.8492136 72.625381 0
-10.518499 -7.0312629 -0.62653607 0 250 0 2.5720158 -4.1202617 73.160194 0
-10.531524 -7.2299948 -0.68449223 0 250 0 -1.0152452 -4.8949566 69.241882 0
-10.486252 -7.3039956 -0.68063426 0 250 0 -1.4443623 -5.1132674 66.429108 0
-10.516219 -7.434001 -0.67254573 0 250 0 -1.3093288 -5.8524842 61.11607 0
-10.500895 -7.6272945 -0.67975932 0 250 0 2.503854 -6.0409131 59.585461 0
-10.487213 -7.6921611 -0.69926387 0 250 0 3.1213753 -6.0507984 59.802601 0
-10.521375 -7.8384938 -0.74536711 0 250 0 3.9244418 -6.4056726 62.233734 0
-10.534581 -8.0576458 -0.71353298 0 250 0 1.4891945 -5.9460545 66.182373 0
-10.558595 -8.2287617 -0.71497667 0 250 0 3.8838785 -6.8574109 68.141205 0
-10.573609 -8.2872858 -0.74077719 0 250 0 3.3136337 -6.8773355 66.641785 0
-10.592592 -8.4201908 -0.7573002 0 250 0 0.9992975 -4.7721033 62.780342 0
-10.600445 -8.6106033 -0.73846012 0 250 0 -0.488545 -6.1245389 58.436523 0
-10.581285 -8.6651564 -0.73618102 0 250 0 -0.76427233 -5.4212828 56.352322 0
-10.577579 -8.7796354 -0.73204345 0 250 0 1.2756965 -5.3217521 56.077644 0
-10.600808 -8.9525251 -0.76082796 0 250 0 1.5831064 -5.0997329 58.147926 0
-10.637232 -9.0077648 -0.77996135 0 250 0 1.1467047 -5.7573433 58.747444 0
-10.659186 -9.1170979 -0.77442771 0 250 0 0.97177047 -5.5463138 59.791115 0
-10.71886 -9.2630901 -0.74707991 0 250 0 1.0164452 -6.0658154 58.673679 0
-10.789971 -9.3970394 -0.7803033 0 250 0 0.70830965 -5.7654748 55.45203 0
-10.79892 -9.4496775 -0.78213531 0 250 0 0.18575314 -5.1780834 53.111126 0
-10.808357 -9.556675 -0.79718846 0 250 0 -0.71300977 -4.9592986 50.636314 0
-10.835066 -9.725728 -0.76449174 0 250 0 -1.148546 -5.455183 45.372124 0
-10.836023 -9.7645006 -0.76561213 0 250 0 0.41153529 -6.2859354 44.905159 0
-10.835473 -9.8434858 -0.78952658 0 250 0 1.0673244 -5.8664727 44.064854 0
-10.846805 -10.008166 -0.80781001 0 250 0 1.6922457 -4.6555667 47.314957 0
-10.857793 -10.177887 -0.80815327 0 250 0 1.579566 -6.0758338 51.535912 0
-10.889239 -10.236096 -0.80134529 0 250 0 1.6443424 -6.4665723 53.084908 0
-10.895323 -10.333127 -0.80361581 0 250 0 2.6253221 -6.8191342 53.616535 0
-10.923773 -10.495111 -0.84678376 0 250 0 1.8343352 -5.7614417 53.191566 0
-10.926134 -10.560461 -0.85395557 0 250 0 1.3126434 -5.5547833 52.099609 0
-10.935998 -10.682297 -0.8732388 0 250 0 -2.1075215 -7.0733685 49.018559 0
-10.924394 -10.85777 -0.85798806 0 250 0 -0.8206079 -6.7733197 44.649109 0
-10.9174 -10.910757 -0.86067551 0 250 0 0.24248968 -5.8771977 43.77026 0
-10.92772 -11.030882 -0.88339275 0 250 0 1.0793223 -5.9611139 42.798027 0
-10.932742 -11.242449 -0.90797907 0 250 0 0.97681469 -8.2992783 44.950253 0
-10.997026 -11.451702 -0.89327091 0 250 0 -0.86392707 -10.509169 49.589176 0
-10.992672 -11.501827 -0.88805312 0 250 0 -0.74378431 -10.835627 48.322617 0
-10.995646 -11.622921 -0.88779616 0 250 0 0.85068941 -10.761467 48.834099 0
-11.031455 -11.800634 -0.95270002 0 250 0 -0.59819835 -9.8234692 45.807301 0
-11.017208 -11.868723 -0.95426148 0 250 0 -2.2487395 -9.3391314 43.930573 0
-11.040054 -12.00662 -0.92711532 0 250 0 -1.9754727 -10.006341 42.173717 0
-11.034105 -12.179819 -0.93641663 0 250 0 1.1154227 -9.3657694 37.236031 0
-11.018813 -12.36691 -0.98163193 0 250 0 1.2878402 -9.1134205 38.506931 0
-11.018975 -12.425215 -1.0027641 0 250 0 1.4185685 -10.026268 39.398907 0
-11.014001 -12.544556 -1.0137351 0 250 0 1.3526152 -9.0529079 41.396137 0
-11.038486 -12.709856 -1.0218515 0 250 0 0.77965593 -6.4786086 41.616329 0
-11.032327 -12.785946 -0.99814051 0 250 0 1.9491973 -5.8154426 42.116333 0
-11.048449 -12.909962 -1.0392845 0 250 0 1.1067294 -8.5353994 41.818066 0
-11.027679 -13.09902 -1.0710006 0 250 0 -1.0773586 -7.2246366 38.917057 0
-11.033449 -13.163307 -1.0607313 0 250 0 -0.30625385 -6.4944243 37.705631 0
-11.031077 -13.286641 -1.058947 0 250 0 1.3053962 -6.6928687 34.611477 0
-11.028668 -13.477621 -1.0952954 0 250 0 2.3008976 -6.0902104 34.634647 0
-11.017858 -13.661563 -1.1146898 0 250 0 0.81143677 -6.5960374 34.646584 0
-11.012575 -13.722566 -1.1101038 0 250 0 1.0485497 -5.763907 37.329227 0
-11.023471 -13.852536 -1.104851 0 250 0 -0.45038643 -5.766603 38.155643 0
-11.022418 -14.05713 -1.1268528 0 250 0 1.3069969 -6.2557526 40.53233 0
-11.030264 -14.12256 -1.1515737 0 250 0 0.37285811 -6.6238418 38.753693 0
-10.994691 -14.252911 -1.1575928 0 250 0 -1.5671893 -4.7438526 34.99155 0
-10.992015 -14.446451 -1.1443408 0 250 0 -0.18621446 -4.8396893 30.491755 0
-10.983276 -14.645452 -1.1670591 0 250 0 0.6238122 -4.9713292 30.20953 0
-10.988238 -14.713044 -1.1814526 0 250 0 0.64836341 -6.2440572 30.734581 0
-10.971786 -14.848752 -1.1750412 0 250 0 0.28484413 -5.0719681 31.237848 0
-10.985228 -15.041245 -1.1623588 0 250 0 0.81255454 -6.2328296 33.040268 0
-10.983626 -15.115383 -1.1532995 0 250 0 1.4044621 -6.2001381 33.449013 0
-10.990994 -15.240614 -1.2033389 0 250 0 0.76866412 -7.9554815 33.792679 0
-10.979164 -15.453323 -1.2142544 0 250 0 -0.59122372 -5.553524 29.037128 0
-10.993637 -15.521077 -1.2124541 0 250 0 -0.72114092 -5.5089502 27.806952 0
-10.977862 -15.640389 -1.2094915 0 250 0 -0.25405851 -4.9882398 24.86548 0
-10.957367 -15.862959 -1.2324941 0 250 0 -0.0622118 -5.8732691 27.80818 0
-10.931399 -16.052027 -1.252908 0 250 0 -0.62746394 -6.2296004 37.10891 0
-10.93006 -16.147963 -1.2522764 0 250 0 -2.5250537 -6.4388819 39.855114 0
-10.903997 -16.260059 -1.2628478 0 250 0 -1.3532959 -4.5115814 42.278156 0
-10.876664 -16.476089 -1.3199853 0 250 0 -1.7050208 -5.8165765 44.843266 0
-10.85113 -16.546396 -1.3166541 0 250 0 -1.9628304 -5.6189442 44.114052 0
-10.797006 -16.665722 -1.313966 0 250 0 -1.5548545 -5.5866933 45.093109 0
-10.717839 -16.841337 -1.2982849 0 250 0 1.1316992 -5.6166821 47.25993 0
-10.69632 -16.907108 -1.3134007 0 250 0 1.7032381 -6.2367735 48.164433 0
-10.61573 -17.051701 -1.3411881 0 250 0 3.5688312 -5.9805117 50.875134 0
-10.495133 -17.216171 -1.3623954 0 250 0 4.4269028 -7.7161989 59.919273 0
-10.40744 -17.389755 -1.3786637 0 250 0 2.7047663 -5.2124748 63.938133 0
-10.361796 -17.529194 -1.3766713 0 250 0 4.5727906 -4.752212 66.349449 0
-10.292872 -17.651487 -1.4234676 0 250 0 3.7236671 -7.1424046 68.06295 0
-10.165335 -17.834892 -1.4387316 0 250 0 3.144423 -7.1189213 66.486557 0
-10.140113 -17.901693 -1.4433229 0 250 0 2.3075955 -7.339293 65.02066 0
-10.029338 -17.986786 -1.4293462 0 250 0 4.1441083 -6.1126857 63.548061 0
-9.893734 -18.14646 -1.4969468 0 250 0 5.1541667 -6.1600218 66.042694 0
-9.7479744 -18.320164 -1.5210745 0 250 0 3.091732 -7.4787965 69.87764 0
-9.7298555 -18.411491 -1.5280873 0 250 0 2.4077709 -7.1505027 72.057373 0
-9.6283436 -18.503754 -1.5110998 0 250 0 3.8025663 -6.4940429 72.073738 0
-9.4988222 -18.702694 -1.5681268 0 250 0 5.0869322 -8.1896935 71.766472 0
-9.4456406 -18.767414 -1.5696374 0 250 0 4.6106725 -7.9210148 69.553177 0
-9.3290205 -18.852915 -1.5656347 0 250 0 4.9855862 -7.823154 67.253845 0
-9.1914072 -18.998028 -1.5719621 0 250 0 6.1622248 -6.4477067 63.615555 0
-9.0295773 -19.145582 -1.5950582 0 250 0 7.9329386 -5.5909343 64.853653 0
-8.9752846 -19.19046 -1.6133473 0 250 0 8.4773951 -6.7432165 65.8629 0
-8.8676624 -19.322313 -1.6216474 0 250 0 8.4091244 -6.9881015 68.660561 0
-8.7201996 -19.463745 -1.6248356 0 250 0 7.8235903 -5.1248403 68.52903 0
-8.6712103 -19.514236 -1.630589 0 250 0 7.7241416 -5.5571594 69.243019 0
-8.5866699 -19.627752 -1.6881286 0 250 0 6.7134523 -4.7778635 67.708778 0
-8.4021158 -19.781258 -1.6747153 0 250 0 3.600831 -4.4137468 64.502724 0
-8.3627243 -19.843834 -1.667632 0 250 0 2.6194441 -6.0050139 62.760754 0
-8.2590475 -19.905712 -1.6884307 0 250 0 5.2233787 -4.507885 60.753201 0
-8.0928316 -20.065624 -1.7021998 0 250 0 6.6917934 -2.604135 62.625828 0
-7.9274726 -20.215643 -1.7286631 0 250 0 6.0104299 -5.486733 65.661201 0
-7.8984885 -20.30649 -1.7285048 0 250 0 4.9166713 -5.7717586 66.734695 0
-7.7923589 -20.360044 -1.7145072 0 250 0 5.3229308 -5.600688 66.734245 0
-7.6657844 -20.531757 -1.785629 0 250 0 5.262126 -6.6818027 67.688873 0
-7.6141372 -20.59259 -1.7983321 0 250 0 3.8883903 -5.9958324 65.681862 0
-7.5039048 -20.694876 -1.8058289 0 250 0 1.1639149 -5.5418043 61.15947 0
-7.3534474 -20.8207 -1.7982572 0 250 0 3.3798001 -3.771498 56.855732 0
-7.1771874 -20.958019 -1.8304831 0 250 0 4.6069551 -4.1478133 58.094051 0
-7.1117649 -21.011116 -1.8319173 0 250 0 5.4365988 -5.4116983 59.181267 0
-7.0021667 -21.104296 -1.8549197 0 250 0 5.44383 -6.1696649 61.691753 0
-6.8494201 -21.26412 -1.8637341 0 250 0 3.8156321 -5.5522571 63.452003 0
-6.7868094 -21.310816 -1.859223 0 250 0 4.8093867 -5.6428409 63.72234 0
-6.6820998 -21.412928 -1.8981458 0 250 0 4.1777201 -7.5935421 64.165039 0
-6.5186749 -21.541067 -1.944769 0 250 0 2.7012298 -6.7731943 60.672653 0
-6.4798374 -21.602005 -1.9462305 0 250 0 2.1127765 -6.0438995 58.545868 0
-6.3403783 -21.659441 -1.9343607 0 250 0 4.16436 -4.8428607 55.852879 0
-6.1671271 -21.789549 -1.9642725 0 250 0 6.664247 -7.1008911 57.099609 0
-6.0046077 -21.957933 -1.9825621 0 250 0 4.9565034 -7.9795341 59.397327 0
-5.9658585 -22.041859 -1.9753522 0 250 0 3.4893603 -8.1566381 60.226017 0
-5.8606563 -22.113056 -1.9754454 0 250 0 3.9141326 -7.9334264 59.202335 0
-5.7222381 -22.281975 -2.038537 0 250 0 3.3739583 -7.436924 58.283791 0
-5.6700487 -22.33325 -2.0543346 0 250 0 2.2636054 -6.7065082 56.792408 0
-5.544292 -22.41313 -2.0460997 0 250 0 1.9588612 -4.7178378 53.725372 0
-5.3912921 -22.548317 -2.0425594 0 250 0 4.0593739 -5.9255681 51.463776 0
-5.2262831 -22.701756 -2.0739169 0 250 0 5.54142 -6.6212554 52.95499 0
-5.1820655 -22.752439 -2.1061485 0 250 0 5.6143937 -8.1238546 53.492535 0
-5.0619602 -22.845787 -2.1160173 0 250 0 5.779808 -6.8872914 54.963985 0
-4.9155259 -22.993793 -2.1060174 0 250 0 5.2269945 -6.7632542 58.00148 0
-4.8716712 -23.043024 -2.1175246 0 250 0 5.5695128 -7.029747 58.621429 0
-4.7813163 -23.139297 -2.1628935 0 250 0 4.2096124 -7.3944383 57.686134 0
-4.623394 -23.288073 -2.1956069 0 250 0 2.4639823 -8.0774765 53.292419 0
-4.5667925 -23.321323 -2.1945372 0 250 0 2.7578673 -7.3076172 51.177437 0
-4.4482923 -23.392658 -2.1844294 0 250 0 5.306531 -6.1124754 49.961124 0
-4.2879205 -23.541918 -2.2362154 0 250 0 6.6684055 -5.7566957 51.070427 0
-4.1180987 -23.696259 -2.2442212 0 250 0 7.1499166 -6.6241889 52.751274 0
-4.0934343 -23.779661 -2.2402532 0 250 0 5.3492002 -6.9478803 53.418209 0
-3.9869094 -23.85294 -2.2595131 0 250 0 5.846509 -5.0308599 51.487583 0
-3.8403099 -23.991262 -2.3225586 0 250 0 3.9389451 -5.390276 49.127625 0
-3.7772675 -24.037516 -2.3291137 0 250 0 4.1923199 -5.0224762 47.926525 0
-3.664772 -24.124771 -2.3400042 0 250 0 2.4348245 -5.466929 45.268921 0
-3.4837921 -24.231115 -2.3400748 0 250 0 4.2157488 -3.6566246 44.062939 0
-3.4316795 -24.270327 -2.3563807 0 250 0 4.9172959 -3.8186643 44.785137 0
-3.2985146 -24.349207 -2.3856521 0 250 0 5.7219563 -3.9625828 47.979176 0
-3.1138856 -24.485216 -2.4226418 0 250 0 4.1127396 -4.872817 56.607605 0
-2.9098489 -24.587141 -2.4249473 0 250 0 3.8145721 -3.8891075 63.334766 0
-2.8418491 -24.633965 -2.4280128 0 250 0 3.706346 -5.0529218 66.618858 0
-2.7246766 -24.730064 -2.4819996 0 250 0 3.234163 -7.1330028 69.917404 0
-2.5060861 -24.828333 -2.4707086 0 250 0 1.8375059 -6.0056243 68.570389 0
-2.4378505 -24.834198 -2.47697 0 250 0 2.8742678 -5.7172217 67.755249 0
-2.2916262 -24.873802 -2.4677269 0 250 0 5.6353421 -6.0655003 69.824562 0
-2.0684998 -24.925112 -2.5108161 0 250 0 7.2373762 -7.701158 76.74382 0
-1.8351946 -24.971857 -2.4923356 0 250 0 5.6381593 -8.1662579 88.273773 0
-1.7603484 -24.964434 -2.4838343 0 250 0 4.0726418 -9.3473129 90.5522 0
-1.6211683 -24.972515 -2.4885008 0 250 0 6.9409323 -8.8779583 96.5411 0
-1.3913887 -24.987707 -2.5508599 0 250 0 6.4059215 -9.1893768 100.24251 0
-1.3157675 -24.967613 -2.535136 0 250 0 5.2557931 -8.2217607 100.28308 0
-1.1718571 -24.963219 -2.5337992 0 250 0 4.6911755 -7.7381358 101.41554 0
-0.96003753 -24.928902 -2.5287099 0 250 0 6.2824655 -8.1572409 103.97547 0
-0.89031196 -24.910704 -2.5441194 0 250 0 6.8314891 -8.2477846 105.29393 0
-0.73926163 -24.874668 -2.5475464 0 250 0 7.2493997 -10.27302 109.47942 0
-0.49876511 -24.840807 -2.5377445 0 250 0 5.6325574 -11.567205 115.41018 0
-0.2935816 -24.775532 -2.5186005 0 250 0 7.6012411 -12.242554 119.05612 0
-0.22769158 -24.750025 -2.5400903 0 250 0 8.0157528 -13.421531 119.56241 0
-0.096336789 -24.697693 -2.569382 0 250 0 6.4868426 -12.064715 119.28834 0
0.10404193 -24.618252 -2.5554512 0 250 0 4.5849462 -9.4767857 118.56395 0
0.16787872 -24.579983 -2.5343471 0 250 0 5.3566489 -8.7474337 118.32625 0
0.28775635 -24.506657 -2.5548196 0 250 0 6.3441014 -10.406817 119.69711 0
0.50361091 -24.406555 -2.5632939 0 250 0 7.1395192 -13.006699 124.5232 0
0.70771778 -24.313299 -2.5326672 0 250 0 5.4980297 -13.664515 128.22751 0
0.74639785 -24.265209 -2.5257421 0 250 0 6.1065669 -12.963104 128.64349 0
0.87173355 -24.19272 -2.5102201 0 250 0 6.5452147 -14.429398 130.54318 0
1.0453591 -24.056601 -2.5457408 0 250 0 5.8968825 -13.938023 128.25916 0
1.0873425 -24.004105 -2.5313151 0 250 0 5.8223658 -13.871428 128.13992 0
1.2078613 -23.932371 -2.540735 0 250 0 6.2556386 -13.613525 125.77197 0
1.3625773 -23.792387 -2.5257452 0 250 0 9.7787457 -11.612451 125.39045 0
1.4094633 -23.734625 -2.5320258 0 250 0 9.9078426 -11.949162 126.60072 0
1.530238 -23.636009 -2.5500004 0 250 0 8.9025908 -13.609884 129.54391 0
1.7298665 -23.491215 -2.5189388 0 250 0 6.7279034 -11.55561 133.62555 0
1.8801334 -23.32332 -2.5045581 0 250 0 7.3922267 -13.34245 134.56403 0
1.929093 -23.264572 -2.5244646 0 250 0 7.5136151 -14.204876 134.56386 0
2.0360417 -23.147497 -2.5392413 0 250 0 6.4112139 -13.748234 132.22392 0
2.1712461 -22.993193 -2.5246587 0 250 0 6.2801571 -11.174195 128.45433 0
2.2098157 -22.939047 -2.5111814 0 250 0 8.1157398 -10.094423 128.24113 0
2.3100603 -22.840048 -2.522613 0 250 0 9.1801043 -10.323042 128.37892 0
2.4955175 -22.681454 -2.5339789 0 250 0 8.6991501 -11.290318 128.89014 0
2.6787276 -22.536762 -2.4884019 0 250 0 5.9589543 -12.99716 130.01726 0
2.7124755 -22.480175 -2.4835253 0 250 0 6.9264054 -12.523953 130.22786 0
2.823879 -22.382927 -2.4936376 0 250 0 7.1752453 -13.347377 131.10667 0
2.9866579 -22.208942 -2.5203702 0 250 0 5.5827546 -10.149658 128.64952 0
3.0516784 -22.155006 -2.4986699 0 250 0 5.6820283 -9.8247995 127.74181 0
3.1325538 -22.02879 -2.4736795 0 250 0 7.0968609 -8.9576283 123.80489 0
3.3055017 -21.881741 -2.4876912 0 250 0 10.257715 -10.650604 123.89257 0
3.4643397 -21.700766 -2.4831338 0 250 0 9.2088099 -9.9251823 125.62696 0
3.529772 -21.649845 -2.465234 0 250 0 9.3929052 -10.267427 128.41898 0
3.6488888 -21.547024 -2.4304907 0 250 0 6.1493521 -13.076389 129.46591 0
3.8177238 -21.378218 -2.4485281 0 250 0 6.6648088 -14.820774 130.38271 0
3.8806877 -21.326334 -2.4789243 0 250 0 5.9422402 -14.149944 128.31088 0
3.9599266 -21.183113 -2.4537799 0 250 0 6.0328679 -11.796381 125.44199 0
4.100193 -21.016396 -2.4049158 0 250 0 6.6579146 -11.825312 123.72498 0
4.1526346 -20.963552 -2.3982687 0 250 0 8.188653 -12.431182 123.1549 0
4.2474871 -20.843168 -2.4230289 0 250 0 9.366272 -12.839474 123.15065 0
4.4095664 -20.671345 -2.421674 0 250 0 9.4547358 -14.391279 127.3457 0
4.5600286 -20.479145 -2.3560944 0 250 0 7.2284064 -15.430718 130.67757 0
4.6217599 -20.419569 -2.3438826 0 250 0 7.6647635 -17.127064 132.21825 0
4.7426052 -20.302429 -2.4172511 0 250 0 6.4997854 -18.312347 130.99178 0
4.8812027 -20.122692 -2.4007163 0 250 0 6.6098957 -16.341793 125.61475 0
4.916234 -20.063416 -2.3806791 0 250 0 7.5007362 -15.137726 124.42303 0
5.0203743 -19.966146 -2.3877885 0 250 0 9.786171 -16.013378 122.26005 0
5.1355252 -19.783195 -2.4160733 0 250 0 11.106337 -12.411796 121.37971 0
5.2007856 -19.731842 -2.4238229 0 250 0 9.8649235 -12.548731 122.43898 0
5.328495 -19.628304 -2.388279 0 250 0 8.0114317 -12.945419 123.20148 0
5.4668908 -19.465502 -2.3310208 0 250 0 9.6999779 -15.161911 124.16364 0
5.6422906 -19.30056 -2.3837838 0 250 0 6.6316481 -16.233126 123.14214 0
5.6897321 -19.237213 -2.3792968 0 250 0 5.2972212 -15.519183 121.70858 0
5.8024082 -19.138004 -2.351522 0 250 0 5.1947999 -15.100821 119.47581 0
5.9399137 -18.985653 -2.3455756 0 250 0 9.1785727 -14.608882 118.70061 0
5.9864707 -18.936504 -2.3622007 0 250 0 9.8302937 -13.917343 118.61718 0
6.0906496 -18.822903 -2.3520308 0 250 0 10.100037 -16.446926 120.98921 0
6.2792368 -18.66741 -2.328577 0 250 0 6.6932416 -17.568871 125.91237 0
6.4271908 -18.501287 -2.2991259 0 250 0 9.1745415 -17.99341 126.42404 0
6.4825215 -18.444527 -2.329447 0 250 0 8.6145229 -18.584196 125.99241 0
6.5805688 -18.328062 -2.3457379 0 250 0 7.1824985 -18.213612 123.27654 0
6.7288151 -18.174431 -2.3300123 0 250 0 6.0236263 -16.871136 118.01926 0
6.7663937 -18.122211 -2.2975225 0 250 0 8.210784 -16.054064 117.15589 0
6.8534584 -18.026253 -2.2891133 0 250 0 9.7369471 -17.969187 115.6883 0
6.9941096 -17.87336 -2.3013706 0 250 0 9.7984982 -19.919939 117.94227 0
7.0173559 -17.81111 -2.2731292 0 250 0 10.00702 -20.516682 119.40253 0
7.1631584 -17.710964 -2.2432652 0 250 0 7.7222466 -22.003214 121.40623 0
7.2803888 -17.560772 -2.239908 0 250 0 7.6769166 -23.918747 123.94152 0
7.4531112 -17.402151 -2.2932262 0 250 0 4.5894508 -21.154743 122.18599 0
7.481627 -17.332701 -2.283339 0 250 0 4.3779192 -20.199369 121.42772 0
7.5832014 -17.240891 -2.258184 0 250 0 3.8429017 -18.460175 119.9715 0
7.7143044 -17.084221 -2.2611561 0 250 0 7.9554338 -16.599211 117.80199 0
7.7557406 -17.023121 -2.264858 0 250 0 8.4223461 -16.183588 118.24464 0
7.872417 -16.911068 -2.2743428 0 250 0 8.9423056 -17.576548 119.70678 0
8.0533953 -16.755293 -2.213495 0 250 0 7.1228108 -19.27293 121.53683 0
8.1947212 -16.59931 -2.2013245 0 250 0 7.9024282 -19.414795 122.65823 0
8.2561712 -16.553925 -2.2256281 0 250 0 7.4835134 -19.765471 122.47044 0
8.3402882 -16.427982 -2.2423708 0 250 0 6.0435147 -17.756712 120.23027 0
8.5037079 -16.289627 -2.2194052 0 250 0 6.2531433 -16.325499 117.70404 0
8.5592966 -16.244843 -2.2067182 0 250 0 8.4754171 -14.441293 116.88969 0
8.660984 -16.125893 -2.2054501 0 250 0 8.9843197 -14.546232 115.55695 0
8.8309565 -15.951012 -2.1973906 0 250 0 8.6731691 -17.01115 119.62619 0
8.8893843 -15.902677 -2.1955161 0 250 0 7.9989686 -17.330002 121.5372 0
9.0119734 -15.80909 -2.1727722 0 250 0 7.2362275 -17.172998 121.47813 0
9.1577911 -15.649666 -2.1621611 0 250 0 7.7351003 -18.7339 123.74931 0
9.309597 -15.487617 -2.1794617 0 250 0 5.6648006 -18.01358 122.54665 0
9.3656864 -15.438614 -2.1680269 0 250 0 4.5754089 -17.974844 122.34174 0
9.4453144 -15.331224 -2.1566968 0 250 0 6.1735616 -16.374834 120.10432 0
9.5499048 -15.143274 -2.1536906 0 250 0 8.2806368 -16.502195 122.17252 0
9.6610947 -14.943308 -2.1506579 0 250 0 7.5005221 -19.567034 128.96422 0
9.7106066 -14.889643 -2.1467533 0 250 0 7.2053308 -19.133867 132.53511 0
9.7678003 -14.769831 -2.1268129 0 250 0 4.8757353 -18.997761 137.33434 0
9.8809996 -14.574039 -2.1271489 0 250 0 3.6625309 -19.299652 143.87405 0
9.9274654 -14.510249 -2.1420381 0 250 0 3.5506892 -19.134705 143.71979 0
9.9692726 -14.372559 -2.1346955 0 250 0 3.643136 -16.384668 142.59544 0
10.017642 -14.170284 -2.084552 0 250 0 3.6047826 -15.534134 142.94554 0
10.038415 -14.100159 -2.0675967 0 250 0 4.0446014 -16.06411 144.64352 0
10.070499 -13.954625 -2.0936537 0 250 0 4.4808645 -17.708157 148.51707 0
10.097825 -13.73405 -2.0907402 0 250 0 2.5149093 -19.525347 155.06825 0
10.126056 -13.534125 -2.0281107 0 250 0 0.981493 -17.947886 163.4548 0
10.126969 -13.466065 -2.0144033 0 250 0 1.5600388 -18.3727 166.73691 0
10.152104 -13.311822 -2.0344448 0 250 0 0.94538444 -19.810089 170.41187 0
10.160226 -13.086446 -2.0167251 0 250 0 -0.56489563 -17.126265 171.57497 0
10.174806 -13.002823 -1.9982944 0 250 0 -1.9451202 -17.714878 170.67261 0
10.147183 -12.864545 -1.9726772 0 250 0 1.7600349 -16.147617 169.65753 0
10.11908 -12.646759 -1.9789383 0 250 0 3.1054022 -18.847012 173.92641 0
10.116088 -12.41242 -1.9775041 0 250 0 1.3841445 -21.109549 180.38078 0
10.14922 -12.324481 -1.9524413 0 250 0 -0.75117302 -20.52565 182.0092 0
10.095357 -12.182465 -1.9258898 0 250 0 -0.94581872 -19.189127 182.76537 0
10.068329 -11.941976 -1.9256095 0 250 0 -0.59423238 -21.428764 185.87901 0
10.051743 -11.864724 -1.9274257 0 250 0 -0.42688176 -20.168089 185.24428 0
10.021392 -11.70972 -1.8739227 0 250 0 -2.127182 -19.684412 185.35962 0
9.9207592 -11.470054 -1.8310874 0 250 0 1.312536 -18.242914 183.11429 0
9.8614788 -11.260878 -1.8248516 0 250 0 2.976953 -19.780403 188.10133 0
9.8344975 -11.194794 -1.8082489 0 250 0 2.2737885 -20.358156 189.76657 0
9.7971096 -11.05884 -1.7688172 0 250 0 -1.6640646 -20.012808 196.65314 0
9.7351961 -10.833942 -1.6920451 0 250 0 -3.021723 -18.575315 198.55676 0
9.7137089 -10.766533 -1.6591184 0 250 0 -3.1731231 -19.35186 199.54366 0
9.6724234 -10.605209 -1.6683713 0 250 0 -3.1258886 -22.052813 199.39767 0
9.5982676 -10.4021 -1.6398484 0 250 0 -3.1669917 -21.029533 196.52344 0
9.5988789 -10.322302 -1.6181099 0 250 0 -3.9918509 -21.228947 195.07245 0
9.529912 -10.216099 -1.6149352 0 250 0 -0.64669347 -18.741478 192.43704 0
9.4213181 -10.031536 -1.5851847 0 250 0 1.4371842 -20.844601 195.93765 0
9.3518105 -9.8324556 -1.5775461 0 250 0 -0.71173972 -20.758717 199.18048 0
9.3496952 -9.7534857 -1.5420356 0 250 0 -2.0616279 -20.262903 200.84845 0
9.2917509 -9.6373949 -1.5137594 0 250 0 -1.2048241 -20.175337 201.1602 0
9.2157536 -9.4329815 -1.5049559 0 250 0 -0.47317791 -22.212601 201.16704 0
9.1998062 -9.3609695 -1.5101446 0 250 0 -0.19895679 -21.698175 200.43727 0
9.1376677 -9.2371931 -1.48057 0 250 0 -1.9215806 -21.276119 198.17578 0
9.038372 -9.0593748 -1.4445567 0 250 0 2.4349325 -19.152586 192.93686 0
9.000391 -8.9943476 -1.4304173 0 250 0 3.2107701 -19.466492 192.78815 0
8.9033308 -8.889472 -1.426157 0 250 0 4.6101756 -20.244213 195.08853 0
8.8089199 -8.6577101 -1.4067564 0 250 0 0.68884099 -21.418781 199.13818 0
8.7069836 -8.476429 -1.3529878 0 250 0 0.32719755 -20.238894 199.79367 0
8.6723871 -8.4098473 -1.3419782 0 250 0 0.77062917 -20.568077 200.09111 0
8.5898485 -8.2848511 -1.3449574 0 250 0 2.6555967 -20.873295 199.04341 0
8.4734392 -8.1043072 -1.3076915 0 250 0 0.6715275 -21.401091 197.33992 0
8.438096 -8.0565758 -1.3142536 0 250 0 -0.086312473 -21.079266 195.15993 0
8.3443327 -7.9595871 -1.284517 0 250 0 3.3135726 -19.458147 193.96765 0
8.1989174 -7.7884274 -1.2703934 0 250 0 4.4125204 -21.14138 195.16351 0
8.0867815 -7.5998707 -1.2450022 0 250 0 1.1124234 -20.431938 199.94371 0
8.0432596 -7.5461254 -1.2299113 0 250 0 -0.78860372 -20.816549 199.4525 0
7.9429178 -7.4513068 -1.2026874 0 250 0 0.7825973 -19.443657 200.57657 0
7.8028555 -7.2756844 -1.2055728 0 250 0 1.3906753 -21.076258 199.55977 0
7.7553272 -7.2223239 -1.1995163 0 250 0 0.48233637 -20.145294 198.51509 0
7.6600976 -7.1171288 -1.1607391 0 250 0 0.30689356 -20.073339 196.85519 0
7.5077944 -6.9765887 -1.1429729 0 250 0 3.1063159 -20.353428 194.91101 0
7.4487944 -6.9376936 -1.1497176 0 250 0 4.1506519 -20.014135 194.8644 0
7.3541846 -6.8127875 -1.1452783 0 250 0 3.2491412 -21.183401 197.83803 0
0 0 0 1 0 0 0 1 0 0 0 1 0 0 0 0 0 525 1 0 0
