ply
format ascii 1.0
comment PCL generated
element vertex 640
property float x
property float y
property float z
property uchar red
property uchar green
property uchar blue
property float nx
property float ny
property float nz
property float curvature
element camera 0
property float view_px
property float view_py
property float view_pz
property float x_axisx
property float x_axisy
property float x_axisz
property float y_axisx
property float y_axisy
property float y_axisz
property float z_axisx
property float z_axisy
property float z_axisz
property float focal
property float scalex
property float scaley
property float centerx
property float centery
property int viewportx
property int viewporty
property float k1
property float k2
end_header
269.27115 196.37909 0.61000001 250 250 250 4.0467277 -1.1849523 29.281496 0
269.27115 196.37909 0.61000001 250 250 250 3.5577676 -1.3588368 29.190149 0
271.38132 197.55293 0.61000001 250 250 250 3.7249177 -1.4167509 28.888474 0
271.38132 197.55293 0.62 250 250 250 4.0325274 -0.8350234 28.27795 0
273.52252 198.6714 0.63 250 250 250 5.0643735 -1.8145888 27.575958 0
273.52252 198.6714 0.63 250 250 250 4.6681609 -1.659084 26.620455 0
275.65335 199.77881 0.62 250 250 250 4.9433331 -2.3338387 26.407709 0
275.65335 199.77881 0.62 250 250 250 5.0925865 -3.0384364 26.942451 0
277.78421 200.90834 0.62 250 250 250 4.8707819 -3.6209261 27.146544 0
277.78421 200.90836 0.63999999 250 250 250 5.0005431 -2.3490975 27.95075 0
279.89438 202.11542 0.64999998 250 250 250 4.2830238 -2.9317379 28.62862 0
279.89438 202.11542 0.64999998 250 250 250 3.5733881 -3.0000901 29.088442 0
281.97351 203.30034 0.64999998 250 250 250 2.980737 -3.3148699 29.155691 0
281.97351 203.30034 0.63999999 250 250 250 2.9051914 -4.5842705 29.215183 0
284.09402 204.45203 0.63999999 250 250 250 2.8744047 -5.6691742 28.46854 0
284.09402 204.45203 0.64999998 250 250 250 3.5337417 -5.775692 27.384699 0
286.21454 205.58157 0.66000003 250 250 250 3.5421956 -5.1041951 27.596243 0
286.21454 205.58157 0.66000003 250 250 250 3.8865066 -4.2905011 27.170025 0
288.33505 206.75542 0.63999999 250 250 250 4.1238542 -4.8932147 27.962696 0
288.33505 206.75542 0.63999999 250 250 250 4.3439279 -5.7339573 28.400642 0
290.43488 207.91818 0.63999999 250 250 250 4.1337304 -6.7244954 28.065128 0
290.43488 207.91818 0.63999999 250 250 250 4.5288835 -6.2726526 28.220051 0
292.5347 209.1031 0.63999999 250 250 250 5.0961213 -5.3113728 28.624371 0
292.5347 209.1031 0.63 250 250 250 4.3343329 -4.5312123 29.040569 0
294.63452 210.33231 0.60000002 250 250 250 3.6466811 -3.2440434 29.514359 0
294.63452 210.33231 0.58999997 250 250 250 3.4844878 -3.2198741 28.879034 0
296.75504 211.47293 0.60000002 250 250 250 3.0257137 -4.9560833 28.241505 0
296.75504 211.47293 0.61000001 250 250 250 4.5177655 -5.5138693 27.646349 0
298.88589 212.62462 0.62 250 250 250 4.6964231 -4.5247946 27.119995 0
298.88589 212.62462 0.62 250 250 250 3.6288137 -3.4286537 26.97921 0
301.01675 213.78738 0.62 250 250 250 3.4641182 -3.7831521 27.354919 0
301.01675 213.78738 0.61000001 250 250 250 3.8177125 -4.461041 27.323137 0
303.12692 214.96123 0.62 250 250 250 4.0795755 -5.6786165 27.640961 0
303.12692 214.96123 0.63999999 250 250 250 3.8357906 -5.8727713 27.715826 0
305.23709 216.13507 0.64999998 250 250 250 3.9491215 -4.3626051 27.897223 0
305.23709 216.13507 0.64999998 250 250 250 3.0576971 -4.2063184 27.802917 0
307.34726 217.30891 0.63999999 250 250 250 3.1359746 -4.8340244 27.860954 0
307.34726 217.30891 0.64999998 250 250 250 3.1371686 -5.9313397 27.849104 0
309.49881 218.40523 0.64999998 250 250 250 2.9579999 -6.9906559 26.065756 0
309.49881 218.40523 0.64999998 250 250 250 3.6246176 -6.6321139 26.308294 0
311.67105 219.4794 0.64999998 250 250 250 3.5246806 -4.3344378 25.390141 0
311.67105 219.4794 0.63 250 250 250 3.4647489 -4.9164281 25.794268 0
313.8226 220.58679 0.63 250 250 250 3.6227498 -6.5434957 25.663874 0
313.8226 220.58679 0.63 250 250 250 3.6253877 -8.728631 26.810894 0
315.94312 221.73848 0.63999999 250 250 250 3.692554 -8.1091595 27.002638 0
315.94312 221.73848 0.63 250 250 250 2.7284946 -6.5175295 27.980831 0
318.04294 222.94554 0.61000001 250 250 250 2.5872378 -6.3258824 28.506496 0
318.04294 222.94554 0.58999997 250 250 250 2.7485607 -6.7827511 28.616434 0
320.15311 224.10831 0.58999997 250 250 250 3.3785434 -7.0455494 28.081329 0
320.15311 224.10831 0.58999997 250 250 250 4.6111803 -5.9553256 27.254419 0
322.28397 225.25999 0.58999997 250 250 250 4.9367576 -5.2289844 27.031544 0
322.28397 225.25999 0.57999998 250 250 250 5.1251631 -4.690104 26.406055 0
324.40448 226.42276 0.56 250 250 250 5.3217487 -5.1038647 26.99106 0
324.40448 226.42276 0.55000001 250 250 250 5.1579146 -5.5694146 27.450657 0
326.49396 227.62982 0.55000001 250 250 250 5.0013804 -6.4256344 28.485527 0
326.49396 227.62982 0.55000001 250 250 250 5.2828364 -5.7454495 29.086796 0
328.52139 228.94762 0.55000001 250 250 250 5.1099048 -4.2832775 30.78034 0
328.52139 228.94762 0.52999997 250 250 250 4.1301165 -3.9052022 31.628466 0
330.55917 230.26543 0.50999999 250 250 250 4.0897527 -2.7807605 31.345825 0
330.55917 230.26543 0.47999999 250 250 250 3.6730142 -3.8256841 30.92355 0
332.61761 231.52785 0.47 250 250 250 3.9198875 -6.093554 30.00316 0
332.61761 231.52785 0.47 250 250 250 5.6221681 -5.6149912 30.419754 0
334.69675 232.76814 0.47999999 250 250 250 4.9038367 -5.3881826 29.592674 0
334.69675 232.76814 0.47 250 250 250 4.5728731 -4.7876692 28.378874 0
336.73453 234.03056 0.46000001 250 250 250 5.0071759 -6.0265603 29.421263 0
336.73453 234.03056 0.46000001 250 250 250 5.2083578 -7.3509474 31.30654 0
338.64819 235.50342 0.46000001 250 250 250 4.2769933 -9.6583652 34.970165 0
338.64819 235.50342 0.47 250 250 250 7.3839569 -6.3115525 35.821327 0
340.48941 237.06487 0.46000001 250 250 250 5.4678321 -6.1164012 38.476624 0
340.48941 237.06487 0.44999999 250 250 250 4.9452796 -5.5757842 38.558617 0
342.341 238.6263 0.44999999 250 250 250 4.8661885 -4.0565734 38.426785 0
342.341 238.6263 0.46000001 250 250 250 4.1537228 -3.9454827 37.991848 0
344.13052 240.22096 0.46000001 250 250 250 5.1523662 -4.1122317 39.369183 0
344.13052 240.22096 0.47 250 250 250 4.8961782 -3.6050277 40.392387 0
345.77524 241.99283 0.46000001 250 250 250 4.4130869 -3.2906785 43.366817 0
345.77524 241.99283 0.46000001 250 250 250 3.3926165 -3.9503565 48.152679 0
347.12 243.99725 0.46000001 250 250 250 3.2742438 -3.7322924 52.633305 0
347.12 243.99725 0.46000001 250 250 250 2.7018001 -3.555788 57.222836 0
348.05099 246.20103 0.47 250 250 250 2.3656108 -3.0168931 62.675133 0
348.05099 246.20103 0.47 250 250 250 1.8058158 -2.7675407 69.470093 0
348.51651 248.57092 0.47 250 250 250 1.3924934 -2.1498625 75.09951 0
348.51651 248.57092 0.46000001 250 250 250 0.91389894 -1.9085542 80.015038 0
348.57864 250.98514 0.44999999 250 250 250 0.594432 -1.4246993 84.896652 0
348.57864 250.98514 0.46000001 250 250 250 -0.14397441 -1.7495311 89.36026 0
348.25803 253.3772 0.46000001 250 250 250 0.17715761 -0.96768934 94.293022 0
348.25803 253.3772 0.46000001 250 250 250 -0.13279468 -1.4142461 97.447136 0
347.69952 255.72498 0.47 250 250 250 0.44634965 0.024451436 100.03711 0
347.69952 255.72498 0.47 250 250 250 1.2953809 -0.33096194 102.54925 0
346.94446 258.01736 0.47 250 250 250 1.4932569 -0.74696136 104.95369 0
346.94446 258.01736 0.47 250 250 250 1.8292741 -1.0320588 107.17799 0
346.03424 260.23227 0.47999999 250 250 250 2.9446137 -0.26381329 108.90737 0
346.03424 260.23227 0.47999999 250 250 250 3.3375273 -0.17938596 110.49957 0
344.97922 262.40286 0.49000001 250 250 250 3.5106168 -0.11920986 112.2141 0
344.97922 262.40286 0.49000001 250 250 250 3.5596547 0.20361029 113.09434 0
343.88281 264.5513 0.49000001 250 250 250 4.1282339 0.15289208 113.72203 0
343.88281 264.5513 0.49000001 250 250 250 3.9226131 -0.58320361 113.51736 0
342.76572 266.68869 0.5 250 250 250 3.9184573 -1.1645085 114.00916 0
342.76572 266.68869 0.50999999 250 250 250 4.5689721 -1.3755312 114.01311 0
341.64862 268.82605 0.50999999 250 250 250 4.7395196 -1.7837026 113.65923 0
341.64862 268.82605 0.50999999 250 250 250 4.8452296 -1.4405384 114.01851 0
340.50049 270.94128 0.50999999 250 250 250 5.1278305 -1.6552793 114.33004 0
340.50049 270.94128 0.50999999 250 250 250 5.2745404 -2.1471958 115.05856 0
339.32132 273.03436 0.51999998 250 250 250 5.3973241 -2.1515329 115.42081 0
339.32132 273.03436 0.52999997 250 250 250 5.8684363 -1.9375814 115.60853 0
338.05942 275.09421 0.54000002 250 250 250 5.1860976 -2.2002749 116.82411 0
338.05942 275.09421 0.54000002 250 250 250 4.816761 -2.0376308 117.4349 0
336.77682 277.12085 0.54000002 250 250 250 4.5024085 -1.7112838 117.79152 0
336.77682 277.12085 0.52999997 250 250 250 4.5892758 -1.3347605 117.47071 0
335.49423 279.16962 0.54000002 250 250 250 5.4291477 -2.0130522 117.33043 0
335.49423 279.16962 0.55000001 250 250 250 5.9340539 -2.2965488 116.51984 0
334.2323 281.21841 0.56 250 250 250 5.871129 -2.8342545 116.53192 0
334.2323 281.21841 0.56 250 250 250 5.7024641 -2.8227105 116.4736 0
332.96005 283.26718 0.55000001 250 250 250 5.9490662 -3.2347345 116.83292 0
332.96005 283.26718 0.54000002 250 250 250 6.1673751 -2.8155429 116.83175 0
331.67743 285.30487 0.55000001 250 250 250 6.643796 -3.5694535 116.76373 0
331.67746 285.30487 0.56 250 250 250 6.9235034 -3.227025 116.58388 0
330.3638 287.33151 0.56999999 250 250 250 6.1249886 -2.5617719 117.714 0
330.3638 287.33151 0.56999999 250 250 250 5.1328721 -2.2550795 118.43645 0
329.00879 289.336 0.56 250 250 250 4.0710239 -2.7648315 118.6864 0
329.00879 289.336 0.56 250 250 250 4.2134061 -3.0570192 118.63452 0
327.70551 291.37372 0.56 250 250 250 4.0913019 -3.824327 117.78719 0
327.70551 291.37372 0.56999999 250 250 250 4.3573856 -3.4211133 115.87379 0
326.51599 293.4668 0.56999999 250 250 250 4.3178158 -2.7644923 114.42497 0
326.51599 293.4668 0.56 250 250 250 5.108254 -1.670907 112.04421 0
325.3989 295.60416 0.54000002 250 250 250 5.5038161 -2.3687212 112.18923 0
325.3989 295.60416 0.52999997 250 250 250 5.4938774 -3.0280917 112.29541 0
324.23007 297.70831 0.54000002 250 250 250 6.1378465 -3.1569507 113.24132 0
324.23007 297.70831 0.54000002 250 250 250 6.8167849 -1.751263 113.72999 0
322.93713 299.75708 0.55000001 250 250 250 5.9703169 -0.23898961 116.02732 0
322.93713 299.75708 0.54000002 250 250 250 4.3075581 -0.99211389 118.54716 0
321.52005 301.69513 0.52999997 250 250 250 3.0526655 -1.5904815 120.08716 0
321.52005 301.69513 0.51999998 250 250 250 2.7880108 -2.0294318 119.6208 0
320.134 303.66638 0.51999998 250 250 250 1.9362212 -3.2557859 119.45586 0
320.134 303.66638 0.52999997 250 250 250 3.0031428 -3.2367301 118.98418 0
318.74796 305.63763 0.51999998 250 250 250 3.1681025 -2.6785507 119.41828 0
318.74796 305.63763 0.50999999 250 250 250 4.1247306 -1.8532237 117.83836 0
317.40329 307.61996 0.49000001 250 250 250 5.0587835 -1.700662 118.19037 0
317.40329 307.61996 0.47999999 250 250 250 5.0782151 -1.9541744 118.50574 0
316.02759 309.60229 0.49000001 250 250 250 4.9983649 -3.6356072 118.61166 0
316.02759 309.60229 0.49000001 250 250 250 5.6414146 -2.1902537 118.74383 0
314.58981 311.54034 0.5 250 250 250 5.4910736 0.20886591 120.15002 0
314.58981 311.54034 0.49000001 250 250 250 4.3508348 0.00043158259 120.88767 0
313.14169 313.47839 0.47999999 250 250 250 4.2716699 -0.22672877 120.62317 0
313.14169 313.47839 0.47999999 250 250 250 4.5748692 -0.36173451 118.99633 0
311.81772 315.49393 0.49000001 250 250 250 4.1559896 -1.8978646 117.58872 0
311.81772 315.49393 0.49000001 250 250 250 4.9340329 -1.0676856 116.06652 0
310.51443 317.52057 0.5 250 250 250 4.3284616 -0.87262517 116.11723 0
310.51443 317.52057 0.49000001 250 250 250 4.693985 -0.80937785 116.14386 0
309.20078 319.53613 0.47999999 250 250 250 4.8300877 -1.7706782 116.62115 0
309.20078 319.53613 0.47999999 250 250 250 4.9941092 -2.1872623 115.87726 0
307.89749 321.57382 0.47999999 250 250 250 5.2529373 -2.4434338 115.74686 0
307.89749 321.57382 0.49000001 250 250 250 5.8245449 -0.66487455 115.67567 0
306.53214 323.56723 0.5 250 250 250 5.146317 -0.069020346 117.293 0
306.53214 323.56723 0.5 250 250 250 4.3564315 -0.38319859 118.03894 0
305.15643 325.52744 0.49000001 250 250 250 4.0135875 -0.7217285 117.92899 0
305.15643 325.52744 0.47999999 250 250 250 3.80476 -0.64600122 117.38663 0
303.83243 327.54297 0.49000001 250 250 250 3.6756165 -2.1016321 116.86887 0
303.83243 327.54297 0.5 250 250 250 3.166081 -1.6710166 116.31057 0
302.50845 329.53638 0.5 250 250 250 3.1255462 -1.9220978 116.40222 0
302.50845 329.53638 0.5 250 250 250 3.4474154 -0.55933529 115.29079 0
301.17413 331.52979 0.49000001 250 250 250 3.6994598 -0.54900056 116.43365 0
301.17413 331.52979 0.47999999 250 250 250 3.537539 -0.77350295 117.39788 0
299.77774 333.46783 0.49000001 250 250 250 3.5001838 -1.7047888 118.33859 0
299.77774 333.46783 0.5 250 250 250 4.4511824 -1.3487538 118.81639 0
298.28824 335.38373 0.50999999 250 250 250 5.0841904 -0.41558245 120.38366 0
298.28824 335.38373 0.5 250 250 250 4.8231363 -0.80061525 121.11343 0
296.77805 337.25531 0.49000001 250 250 250 4.9404182 -0.69379556 121.23524 0
296.77805 337.25531 0.47999999 250 250 250 4.1586208 -0.9099384 120.78043 0
295.31961 339.18228 0.49000001 250 250 250 3.6523004 -1.7341938 119.7123 0
295.31961 339.18228 0.5 250 250 250 5.5980606 -0.7031157 119.18598 0
293.89218 341.13138 0.5 250 250 250 5.0032239 -0.66848749 118.41911 0
293.89218 341.13138 0.49000001 250 250 250 4.72019 -0.94484913 117.77611 0
292.4751 343.06943 0.47999999 250 250 250 5.1790595 -1.7960138 118.43327 0
292.4751 343.06943 0.47 250 250 250 5.0940413 -2.3105052 118.56705 0
291.00629 344.99637 0.47 250 250 250 4.7856517 -2.0066488 119.30527 0
291.00629 344.99637 0.47999999 250 250 250 5.9153347 -0.6975143 119.98096 0
289.46506 346.84583 0.49000001 250 250 250 5.5157819 0.93971747 121.51904 0
289.46506 346.84583 0.47999999 250 250 250 4.1963077 0.71225619 122.48347 0
287.89282 348.6842 0.47999999 250 250 250 3.5392673 -0.19697219 122.36167 0
287.89282 348.6842 0.49000001 250 250 250 3.4197249 -2.1605814 122.59596 0
286.36194 350.52255 0.5 250 250 250 4.2265282 -1.8056231 121.6366 0
286.36194 350.52255 0.50999999 250 250 250 3.6671135 -0.76725245 121.19627 0
284.85178 352.40521 0.5 250 250 250 4.0847454 -0.28182918 120.53197 0
284.85178 352.40521 0.49000001 250 250 250 4.1910315 -1.4148281 121.05816 0
283.31055 354.26575 0.49000001 250 250 250 4.4386458 -2.6238551 121.3793 0
283.31055 354.26575 0.5 250 250 250 4.9176135 -2.5098469 122.3811 0
281.65555 356.0155 0.50999999 250 250 250 6.1374311 -1.921173 124.4796 0
281.65555 356.0155 0.50999999 250 250 250 5.4440193 -0.30034795 125.73357 0
279.95917 357.70993 0.5 250 250 250 4.882946 -0.15070428 126.51845 0
279.95917 357.70993 0.50999999 250 250 250 3.7768862 -1.7003644 125.74984 0
278.30417 359.47076 0.51999998 250 250 250 3.597687 -3.1791694 124.27199 0
278.30417 359.47076 0.54000002 250 250 250 4.5750518 -2.576097 123.08303 0
276.72156 361.27591 0.54000002 250 250 250 3.8965693 -1.4086661 122.6161 0
276.72156 361.27591 0.52999997 250 250 250 4.4207463 -1.9243392 121.60773 0
275.11829 363.09213 0.51999998 250 250 250 4.9546852 -3.3149745 122.52345 0
275.11829 363.09213 0.51999998 250 250 250 5.2475915 -3.6821039 123.47951 0
273.45294 364.853 0.52999997 250 250 250 7.4242253 -2.580708 124.34531 0
273.45294 364.853 0.52999997 250 250 250 7.6554494 -0.44232774 124.97768 0
271.75656 366.56955 0.52999997 250 250 250 5.8770065 -0.6890316 125.57911 0
271.75656 366.56955 0.51999998 250 250 250 5.0435114 -0.89733565 124.37068 0
270.15329 368.37469 0.52999997 250 250 250 4.3527832 -2.9727716 122.65821 0
270.15329 368.37469 0.54000002 250 250 250 5.4020886 -2.9178391 120.69406 0
268.65344 370.27948 0.54000002 250 250 250 5.8736782 -0.68189132 119.10899 0
268.65344 370.27948 0.52999997 250 250 250 6.9714308 0.74343687 117.32275 0
267.19498 372.21753 0.51999998 250 250 250 7.1538363 -0.60449439 117.64072 0
267.19498 372.21753 0.52999997 250 250 250 6.6924739 -2.5571187 118.57447 0
265.69513 374.11127 0.54000002 250 250 250 7.5967908 -2.6011305 119.00376 0
265.69513 374.11127 0.54000002 250 250 250 8.2284441 -1.3325635 120.34801 0
264.13321 375.97177 0.54000002 250 250 250 6.6177859 -0.83213687 120.60268 0
264.13321 375.97177 0.52999997 250 250 250 5.596395 -1.3457885 120.83936 0
262.60233 377.83231 0.54000002 250 250 250 5.1757936 -3.3236394 120.0673 0
262.60233 377.83231 0.55000001 250 250 250 5.1677027 -3.7418702 118.85176 0
261.14386 379.73712 0.56 250 250 250 6.3677034 -3.5251179 117.97369 0
261.14386 379.73712 0.55000001 250 250 250 6.877553 -2.1037247 117.37382 0
259.68539 381.65298 0.54000002 250 250 250 5.9706035 -3.18049 117.84469 0
259.68539 381.65298 0.54000002 250 250 250 5.6662745 -4.0070505 118.77898 0
258.13385 383.51352 0.54000002 250 250 250 6.7367496 -3.7359769 120.15367 0
258.13385 383.51352 0.55000001 250 250 250 7.8121834 -2.3266888 121.92993 0
256.47882 385.27435 0.54000002 250 250 250 7.1731038 0.58911788 123.63778 0
256.47882 385.27435 0.52999997 250 250 250 5.6870289 1.2287649 124.82703 0
254.78244 387.00198 0.52999997 250 250 250 4.7613325 0.21636333 124.71629 0
254.78244 387.00198 0.54000002 250 250 250 3.760633 -2.224668 123.08368 0
253.21019 388.84033 0.54000002 250 250 250 6.1593127 -2.0849633 120.82742 0
253.21019 388.84033 0.54000002 250 250 250 6.3774662 1.1219032 120.52764 0
251.68965 390.72299 0.52999997 250 250 250 6.4315486 2.0674083 119.12893 0
251.68965 390.72299 0.51999998 250 250 250 6.4949503 0.30550775 120.17305 0
250.10706 392.56137 0.52999997 250 250 250 7.1601744 -1.8595716 121.0299 0
250.10706 392.56137 0.55000001 250 250 250 9.4036369 -1.6990093 121.92902 0
248.47273 394.33328 0.56 250 250 250 8.801259 0.28885701 122.93459 0
248.47273 394.33328 0.55000001 250 250 250 6.9860492 0.62163794 123.57312 0
246.81772 396.10522 0.54000002 250 250 250 6.742177 0.70412803 123.32981 0
245.24547 397.91034 0.55000001 250 250 250 6.0881214 -2.0446746 122.51423 0
245.24547 397.91034 0.56 250 250 250 6.2922363 -3.7482393 121.25759 0
243.71458 399.7598 0.56999999 250 250 250 5.8616319 -2.2307096 120.73273 0
243.71458 399.7598 0.55000001 250 250 250 5.9588799 -0.44329849 119.75787 0
242.14233 401.59814 0.54000002 250 250 250 5.8183165 -1.2252564 120.01855 0
242.14233 401.59814 0.54000002 250 250 250 5.4327259 -3.1135325 120.7965 0
240.49767 403.34793 0.55000001 250 250 250 6.1002622 -4.5301375 121.83488 0
240.49767 403.34793 0.55000001 250 250 250 6.8112578 -3.3408577 123.29858 0
238.79092 405.07556 0.54000002 250 250 250 6.2902665 -0.774876 124.61445 0
238.79092 405.07556 0.51999998 250 250 250 5.1251907 -0.3356148 124.75414 0
237.17729 406.88068 0.51999998 250 250 250 4.3345881 -2.0992103 123.22868 0
237.17729 406.88068 0.52999997 250 250 250 4.1525936 -2.5066226 121.58734 0
235.65675 408.75229 0.54000002 250 250 250 5.5523806 -1.4037279 120.06007 0
235.65675 408.75229 0.52999997 250 250 250 6.7964525 0.92462319 119.14871 0
234.15691 410.61279 0.51999998 250 250 250 6.7914639 0.94378531 118.19989 0
234.15691 410.61279 0.50999999 250 250 250 7.0306802 -0.083322331 118.85233 0
232.51224 412.36255 0.51999998 250 250 250 7.011014 -2.7036326 120.2409 0
232.51224 412.36255 0.52999997 250 250 250 7.8184333 -3.5522141 123.11988 0
230.83653 414.0791 0.52999997 250 250 250 7.8915582 -1.077148 123.9353 0
230.83653 414.0791 0.51999998 250 250 250 6.9233136 -0.42204165 124.20808 0
229.20221 415.87317 0.5 250 250 250 6.8375196 -0.35246488 123.23602 0
229.20221 415.87317 0.5 250 250 250 5.9493918 -1.4542044 121.94707 0
227.66098 417.73367 0.50999999 250 250 250 6.2819238 -1.6229272 119.82498 0
227.66098 417.73367 0.51999998 250 250 250 6.6862764 0.32252175 119.21939 0
226.09906 419.58313 0.50999999 250 250 250 6.9575357 1.8202785 118.72602 0
226.09906 419.58313 0.49000001 250 250 250 7.256649 -0.42240408 120.20876 0
224.46474 421.34396 0.47999999 250 250 250 7.0043507 -2.6429105 121.28777 0
224.46474 421.34396 0.49000001 250 250 250 8.0963783 -1.7729204 122.89827 0
222.73732 423.02728 0.5 250 250 250 8.5228653 -0.34519115 124.04613 0
222.73732 423.02728 0.5 250 250 250 7.4928465 1.5519823 125.70948 0
220.99954 424.69952 0.49000001 250 250 250 6.7860894 1.0131298 126.51006 0
220.99954 424.69952 0.49000001 250 250 250 6.1188173 -0.58716941 125.76929 0
219.34453 426.43823 0.5 250 250 250 5.8188396 -2.4292972 124.09089 0
219.34453 426.43823 0.50999999 250 250 250 7.090713 -2.4566863 123.11512 0
217.75157 428.24338 0.50999999 250 250 250 7.214385 0.27064157 121.62878 0
217.75157 428.24338 0.5 250 250 250 7.0399861 -0.3286843 121.15813 0
216.1069 430.02637 0.49000001 250 250 250 6.7452455 -2.4957216 121.71899 0
216.1069 430.02637 0.5 250 250 250 6.5559998 -3.0124922 122.64519 0
214.38982 431.69861 0.5 250 250 250 8.1573706 -1.5794997 124.48598 0
214.38982 431.69861 0.5 250 250 250 7.6167498 0.65709454 125.81743 0
212.65205 433.35977 0.49000001 250 250 250 5.2169447 -0.28710103 126.50347 0
212.65205 433.35977 0.47999999 250 250 250 5.3140855 -0.5493167 125.87881 0
210.95566 435.07632 0.49000001 250 250 250 4.1006889 -1.9332085 124.46286 0
210.95566 435.07632 0.5 250 250 250 4.9823103 -0.84878689 123.95618 0
209.34201 436.88147 0.5 250 250 250 5.3009005 -0.41062543 122.88417 0
209.34201 436.88147 0.49000001 250 250 250 5.4152088 1.1570197 121.17155 0
207.70769 438.65338 0.47 250 250 250 5.5348492 -0.35062861 121.69185 0
207.70769 438.65338 0.47 250 250 250 5.9015064 -2.9534831 122.8781 0
205.95956 440.31454 0.47999999 250 250 250 6.1345892 -4.6299357 125.29284 0
205.95956 440.31454 0.47999999 250 250 250 6.2979097 -4.3634338 126.70808 0
204.15973 441.92035 0.47 250 250 250 5.4864078 -2.671103 127.74519 0
204.15973 441.92035 0.46000001 250 250 250 4.9988379 -2.764874 128.01138 0
202.41162 443.58151 0.44999999 250 250 250 4.446949 -3.5326846 127.31118 0
202.41162 443.58154 0.46000001 250 250 250 4.7376199 -4.5369267 126.0335 0
200.70488 445.30914 0.46000001 250 250 250 6.0524564 -3.3289919 124.97333 0
200.70488 445.30914 0.44999999 250 250 250 6.4280968 -0.90646344 124.13043 0
199.04985 447.0257 0.43000001 250 250 250 6.3887968 -1.4823729 123.61018 0
199.04985 447.0257 0.41999999 250 250 250 7.0416212 -2.8290002 124.28612 0
197.25002 448.64258 0.41999999 250 250 250 6.4376931 -4.8562016 126.09109 0
197.25002 448.64258 0.43000001 250 250 250 6.1028647 -5.0137649 128.45506 0
195.39845 450.19299 0.43000001 250 250 250 6.4771819 -3.0747185 130.02055 0
195.39845 450.19299 0.41999999 250 250 250 5.6972513 -1.7061894 129.95563 0
193.60896 451.77664 0.40000001 250 250 250 4.7501407 -1.6574162 129.15167 0
193.60896 451.77664 0.40000001 250 250 250 4.6072292 -2.5619998 128.25862 0
191.88153 453.45996 0.41 250 250 250 4.7528081 -4.1776633 126.30297 0
191.88153 453.45996 0.41 250 250 250 4.721036 -2.5398738 125.27934 0
190.18513 455.18759 0.38999999 250 250 250 5.6279244 -0.12902611 124.30532 0
190.18513 455.18759 0.37 250 250 250 5.6087794 0.048988037 124.72572 0
188.47839 456.89304 0.36000001 250 250 250 5.2394414 -1.1082537 124.82032 0
188.47839 456.89304 0.36000001 250 250 250 5.4887214 -2.0124078 125.35203 0
186.70958 458.55423 0.38 250 250 250 6.429184 -1.900116 125.94477 0
186.70958 458.55423 0.37 250 250 250 6.4042473 -0.18039939 126.98787 0
184.96146 460.18216 0.36000001 250 250 250 5.5106435 -0.34469661 127.45158 0
184.96146 460.18216 0.34 250 250 250 4.9953389 -0.83786392 126.8003 0
183.29608 461.90979 0.34 250 250 250 4.449193 -3.0099926 125.80112 0
183.29608 461.90979 0.34 250 250 250 5.6188431 -3.7994976 123.55167 0
181.71347 463.72598 0.34 250 250 250 5.8402452 -1.8235015 122.61425 0
181.71347 463.72598 0.33000001 250 250 250 5.6640091 0.12035434 120.69584 0
180.12051 465.54221 0.31 250 250 250 5.7061672 -1.4627548 121.3026 0
180.12051 465.54221 0.30000001 250 250 250 5.2344513 -3.957562 121.52149 0
178.47583 467.30304 0.31 250 250 250 5.543653 -4.4309154 122.51653 0
178.47583 467.30304 0.31 250 250 250 6.0481071 -3.2281904 123.94659 0
176.76909 469.01959 0.30000001 250 250 250 5.393733 -1.7877631 124.56193 0
176.76909 469.01959 0.28 250 250 250 4.9462976 -1.2053682 124.88118 0
175.10371 470.78043 0.28 250 250 250 4.4751172 -2.2721024 124.20776 0
175.10371 470.78043 0.28 250 250 250 4.5661907 -4.8171983 123.32901 0
173.51076 472.56342 0.28 250 250 250 5.7171988 -4.2482524 122.48682 0
173.51076 472.56342 0.28 250 250 250 5.8429513 -2.2854593 122.14494 0
171.86607 474.32425 0.25999999 250 250 250 5.8565102 -2.2896192 122.47293 0
171.86607 474.32425 0.23999999 250 250 250 5.7178893 -3.7625074 123.49596 0
170.16968 476.04077 0.23999999 250 250 250 4.9392548 -5.6769042 124.55158 0
170.16968 476.04077 0.23999999 250 250 250 4.5646887 -7.4269624 125.704 0
168.43188 477.70193 0.23999999 250 250 250 4.6205897 -5.0585585 126.64108 0
168.43188 477.70193 0.23 250 250 250 4.7041459 -3.7886581 126.77234 0
166.69411 479.38525 0.20999999 250 250 250 4.1987162 -3.8760939 126.49566 0
166.69411 479.38525 0.2 250 250 250 3.7860737 -4.6570005 126.13873 0
165.02873 481.12396 0.2 250 250 250 3.9343259 -5.7571349 124.4989 0
165.02873 481.12396 0.20999999 250 250 250 5.0877619 -5.3284688 123.92514 0
163.41508 482.92908 0.2 250 250 250 4.9414296 -3.4841142 122.70969 0
163.41508 482.92908 0.18000001 250 250 250 5.4681797 -3.4541864 123.00245 0
161.78075 484.70099 0.17 250 250 250 5.789165 -4.2755675 123.46973 0
161.78075 484.70099 0.16 250 250 250 5.8170419 -4.9207745 123.40395 0
160.12572 486.45074 0.17 250 250 250 5.9174905 -4.9719839 123.23125 0
160.12572 486.45074 0.17 250 250 250 5.9230409 -2.9497995 124.13976 0
158.45 488.20053 0.16 250 250 250 5.1562791 -2.271775 124.42003 0
158.45 488.20053 0.14 250 250 250 4.9552908 -1.7460897 124.488 0
156.77428 489.93921 0.13 250 250 250 5.1584105 -2.7383549 124.56884 0
156.77428 489.93921 0.13 250 250 250 5.0965881 -4.239028 124.55615 0
155.06754 491.64468 0.14 250 250 250 5.6137547 -3.8780599 125.4723 0
155.06754 491.64468 0.14 250 250 250 6.0140095 -1.6241702 126.23395 0
153.24699 493.20618 0.12 250 250 250 5.9347529 -1.091494 128.15152 0
153.24699 493.20618 0.11 250 250 250 5.6550345 -1.9097959 131.26482 0
151.2713 494.56833 0.11 250 250 250 4.982851 -3.2899861 134.63713 0
151.2713 494.56833 0.11 250 250 250 4.1813469 -4.5942202 137.77687 0
149.15077 495.70901 0.11 250 250 250 3.1853034 -3.5276186 141.53467 0
149.15077 495.70901 0.11 250 250 250 2.960386 -2.2440147 143.33754 0
146.9682 496.7168 0.1 250 250 250 2.7439153 -2.0710819 145.78499 0
146.9682 496.7168 0.090000004 250 250 250 2.0948565 -2.0162172 147.35648 0
144.6925 497.53632 0.090000004 250 250 250 1.1879529 -2.8262146 149.75548 0
144.6925 497.53632 0.090000004 250 250 250 1.5226996 -2.331068 152.48665 0
142.36511 498.16757 0.1 250 250 250 1.8957069 -2.270869 154.97733 0
142.36511 498.16757 0.090000004 250 250 250 1.8302944 -1.2409219 157.35284 0
139.96529 498.43338 0.090000004 250 250 250 1.9430475 -1.1055685 162.32248 0
139.96529 498.43338 0.079999998 250 250 250 1.6607097 -1.2470649 168.35521 0
137.56548 498.04581 0.079999998 250 250 250 1.0599579 -1.3094538 176.47664 0
137.56548 498.04581 0.079999998 250 250 250 0.54697073 -0.12937082 -175.04723 0
135.43459 496.92731 0.079999998 250 250 250 0.39495227 -0.63525307 -164.99423 0
135.43459 496.92731 0.079999998 250 250 250 0.11842331 -0.079578109 -156.66312 0
133.6347 495.32153 0.07 250 250 250 -0.41262516 0.48238468 -149.64816 0
133.6347 495.32153 0.07 250 250 250 0.2710934 0.43437847 -142.76013 0
132.23825 493.35031 0.059999999 250 250 250 0.11702142 0.36359766 -136.41797 0
132.23825 493.35031 0.059999999 250 250 250 0.19620872 0.18018402 -130.81134 0
131.21417 491.19083 0.059999999 250 250 250 -0.28640372 -0.54896218 -125.24844 0
131.21417 491.19083 0.059999999 250 250 250 0.47407958 0.18998471 -121.67276 0
130.43834 488.92059 0.059999999 250 250 250 0.92378479 0.14979117 -118.60526 0
130.43834 488.92059 0.059999999 250 250 250 1.0793251 0.93476623 -116.03591 0
129.85905 486.595 0.059999999 250 250 250 1.6851994 1.2372236 -113.51031 0
129.85905 486.595 0.07 250 250 250 1.6912824 0.29401743 -110.97736 0
129.44528 484.23615 0.07 250 250 250 2.2858279 -0.56086183 -109.02326 0
129.44528 484.23615 0.07 250 250 250 2.3999059 -0.68114829 -107.5034 0
129.1246 481.84412 0.07 250 250 250 2.2398572 -0.060559232 -106.29519 0
129.1246 481.84412 0.079999998 250 250 250 2.0470161 -0.23154107 -105.40566 0
128.84529 479.45206 0.079999998 250 250 250 2.1928313 -1.7821304 -104.84376 0
128.84529 479.45206 0.090000004 250 250 250 2.6645844 -2.7369857 -105.02264 0
128.49358 477.07108 0.1 250 250 250 3.7287402 -3.0340073 -106.71661 0
128.49358 477.07108 0.1 250 250 250 3.8174162 -1.790815 -107.23405 0
128.07979 474.70117 0.1 250 250 250 3.3723514 -0.99879968 -108.41843 0
128.07979 474.70117 0.1 250 250 250 4.1261339 -2.0894492 -107.87721 0
127.72807 472.30911 0.1 250 250 250 4.4428196 -4.0397778 -107.39401 0
127.72807 472.30911 0.12 250 250 250 4.1708622 -4.2368889 -106.72408 0
127.42808 469.92813 0.13 250 250 250 4.6001186 -4.3141818 -105.52998 0
127.42808 469.92813 0.14 250 250 250 4.3404055 -3.147608 -105.11655 0
127.15912 467.53607 0.14 250 250 250 3.7589579 -2.6296325 -105.32983 0
127.15912 467.53607 0.13 250 250 250 3.9154384 -3.0092118 -104.95204 0
126.89015 465.15509 0.13 250 250 250 3.2424362 -4.100821 -104.96078 0
126.89015 465.15509 0.14 250 250 250 3.1583421 -5.302072 -105.72658 0
126.61085 462.77411 0.14 250 250 250 4.2809086 -5.3638444 -105.70408 0
126.61085 462.77411 0.15000001 250 250 250 4.8634825 -3.9327204 -105.14545 0
126.34188 460.38205 0.14 250 250 250 5.1241918 -3.6538827 -105.64198 0
126.34188 460.38205 0.14 250 250 250 5.1454272 -4.5998101 -104.86436 0
126.15567 458.00107 0.14 250 250 250 4.7330585 -5.6992311 -104.1893 0
126.15567 458.00107 0.15000001 250 250 250 4.4242163 -5.2222929 -102.85629 0
126.05222 455.59796 0.16 250 250 250 5.2057834 -4.6039743 -101.81456 0
126.05221 455.59796 0.15000001 250 250 250 5.2433233 -3.1352928 -100.53268 0
126.0315 453.19482 0.14 250 250 250 4.9923835 -2.9945545 -99.85704 0
126.0315 453.19482 0.14 250 250 250 5.0523086 -3.0727417 -99.099449 0
126.0108 450.81384 0.15000001 250 250 250 4.4899225 -3.5941634 -98.972176 0
126.0108 450.81384 0.17 250 250 250 5.4058814 -4.6933613 -99.898293 0
125.95906 448.39963 0.18000001 250 250 250 5.1359591 -5.9078302 -100.36119 0
125.95906 448.39963 0.17 250 250 250 5.2986412 -2.8856626 -101.38171 0
125.90732 445.99649 0.16 250 250 250 5.6456895 -3.350399 -100.91617 0
125.90732 445.99649 0.16 250 250 250 5.5676656 -5.7012272 -100.32545 0
125.9073 443.59338 0.17 250 250 250 5.2135839 -6.7159033 -99.654083 0
125.9073 443.59338 0.19 250 250 250 4.8575058 -8.2074614 -98.303535 0
125.99004 441.20132 0.19 250 250 250 5.4757309 -5.0683088 -97.247986 0
125.99004 441.20132 0.18000001 250 250 250 5.4881039 -5.2414198 -96.939453 0
126.05208 438.79819 0.18000001 250 250 250 5.2619352 -5.5210438 -97.425972 0
126.05208 438.79819 0.18000001 250 250 250 5.0818682 -6.6237588 -97.95327 0
126.08309 436.39505 0.2 250 250 250 5.3882465 -5.7587461 -97.981056 0
126.08309 436.39505 0.22 250 250 250 5.9329386 -6.1180754 -98.78463 0
126.09342 433.99191 0.22 250 250 250 6.0622787 -4.8371086 -98.605225 0
126.09342 433.99191 0.20999999 250 250 250 5.7204628 -5.315547 -98.429832 0
126.16581 431.58878 0.2 250 250 250 5.5405889 -6.1960764 -97.795807 0
126.16581 431.58878 0.20999999 250 250 250 5.3486509 -7.112772 -97.513275 0
126.24854 429.18567 0.23 250 250 250 6.1911917 -5.0130215 -97.448471 0
126.24854 429.18567 0.23999999 250 250 250 6.9564776 -5.1328359 -96.928391 0
126.43472 426.79361 0.25 250 250 250 6.05266 -4.9875903 -95.62307 0
126.43472 426.79361 0.25 250 250 250 5.6684012 -5.4868183 -94.493225 0
126.66226 424.4126 0.25999999 250 250 250 5.7872458 -6.0260892 -93.78096 0
126.66226 424.4126 0.27000001 250 250 250 5.4227953 -6.5016851 -95.254868 0
126.78638 422.02057 0.28999999 250 250 250 7.1389079 -6.2386284 -96.346977 0
126.78638 422.02057 0.31 250 250 250 7.1918855 -6.3972363 -95.834824 0
126.95186 419.61743 0.30000001 250 250 250 6.1148019 -5.9248629 -96.518387 0
126.95186 419.61743 0.28999999 250 250 250 6.1277776 -6.7737889 -95.202362 0
127.18975 417.23645 0.28999999 250 250 250 6.1677351 -7.4241853 -94.578354 0
127.18975 417.23645 0.30000001 250 250 250 5.9361067 -8.5331182 -93.367348 0
127.53108 414.87759 0.31999999 250 250 250 6.3771453 -8.6468925 -92.239502 0
127.53108 414.87759 0.31999999 250 250 250 6.5533977 -8.0460339 -91.427109 0
127.9138 412.49661 0.31999999 250 250 250 5.9083724 -7.7666373 -90.924561 0
127.9138 412.49661 0.31 250 250 250 5.7236414 -7.0658641 -91.262764 0
128.26547 410.13779 0.31 250 250 250 5.57269 -7.7583413 -91.373024 0
128.26547 410.13779 0.31999999 250 250 250 5.1142778 -8.3864679 -92.109634 0
128.6068 407.76785 0.33000001 250 250 250 5.9736214 -8.5543737 -92.320618 0
128.6068 407.76785 0.33000001 250 250 250 5.8172822 -6.6350961 -92.39537 0
128.90675 405.37579 0.31999999 250 250 250 6.4554944 -5.995338 -93.564713 0
128.90675 405.37579 0.31 250 250 250 6.465476 -7.1376357 -92.75087 0
129.2274 403.00589 0.31 250 250 250 6.034977 -7.9210329 -92.778801 0
129.2274 403.00589 0.31999999 250 250 250 5.6512489 -8.1777592 -91.54451 0
129.69287 400.64706 0.34 250 250 250 5.8109322 -8.00249 -89.871704 0
129.69287 400.64706 0.34 250 250 250 5.2740965 -7.0259886 -88.241508 0
130.19971 398.29929 0.33000001 250 250 250 4.1503968 -7.053503 -88.030357 0
130.19971 398.29929 0.31 250 250 250 4.1664634 -6.0543261 -89.050201 0
130.61343 395.92938 0.31 250 250 250 3.8980138 -6.0956349 -90.124702 0
130.61343 395.92938 0.31999999 250 250 250 4.3850079 -5.7567964 -91.650551 0
130.94443 393.53732 0.31999999 250 250 250 5.0061922 -4.966053 -92.949654 0
130.94443 393.53732 0.31999999 250 250 250 4.7222366 -3.4822166 -92.985268 0
131.25473 391.14526 0.30000001 250 250 250 5.215528 -2.7779336 -93.536705 0
131.25473 391.14526 0.28999999 250 250 250 5.3525677 -3.3886001 -92.884224 0
131.6064 388.77536 0.28999999 250 250 250 5.1568227 -4.6733232 -92.382378 0
131.6064 388.77536 0.30000001 250 250 250 5.3622575 -4.2157593 -91.788933 0
132.05118 386.42758 0.31 250 250 250 5.5290971 -3.2733541 -90.344963 0
132.05118 386.42758 0.30000001 250 250 250 4.8452525 -2.9877763 -88.679802 0
132.56836 384.06876 0.30000001 250 250 250 4.9720678 -3.4468412 -88.367111 0
132.56836 384.06876 0.28999999 250 250 250 5.1323795 -3.7982981 -88.471741 0
133.04416 381.69882 0.28999999 250 250 250 4.910902 -5.0224743 -89.236679 0
133.04416 381.69882 0.30000001 250 250 250 6.0010271 -2.9679112 -90.238602 0
133.4579 379.31784 0.31 250 250 250 5.8195329 -2.4761763 -90.61216 0
133.4579 379.31784 0.31 250 250 250 5.8005128 -1.7044051 -92.103683 0
133.8613 376.97009 0.31 250 250 250 6.6296053 -3.1740577 -91.052078 0
133.8613 376.97009 0.31 250 250 250 6.3947091 -5.3880358 -90.917198 0
134.27502 374.60016 0.31999999 250 250 250 6.8134203 -4.7840014 -90.405159 0
134.27502 374.60016 0.33000001 250 250 250 7.72891 -4.927269 -90.580177 0
134.80255 372.24133 0.33000001 250 250 250 6.9303975 -3.6049879 -88.71537 0
134.80255 372.24133 0.31999999 250 250 250 6.5511394 -3.7049508 -87.459801 0
135.3611 369.92679 0.31 250 250 250 6.8339491 -3.6933634 -87.151268 0
135.3611 369.92679 0.31 250 250 250 6.3099527 -4.9440746 -87.82135 0
135.85759 367.56796 0.31999999 250 250 250 5.9596124 -4.9609814 -88.505272 0
135.85759 367.56796 0.33000001 250 250 250 5.7393456 -4.2640491 -89.893806 0
136.2403 365.20911 0.31999999 250 250 250 5.6306739 -2.3441341 -90.851105 0
136.2403 365.20911 0.31 250 250 250 6.0451126 -2.6935871 -91.542419 0
136.61267 362.8392 0.30000001 250 250 250 6.3945317 -4.2102313 -91.745834 0
136.61267 362.8392 0.31 250 250 250 6.5738745 -5.4490857 -91.447807 0
137.0264 360.45822 0.33000001 250 250 250 7.5102773 -4.0917392 -91.310562 0
137.0264 360.45822 0.33000001 250 250 250 6.87221 -3.2763801 -89.139923 0
137.60565 358.14368 0.33000001 250 250 250 5.9918604 -3.175962 -86.927391 0
137.60565 358.14368 0.31999999 250 250 250 5.7651181 -2.9313593 -86.575706 0
138.18489 355.7959 0.31999999 250 250 250 5.3731384 -3.5861728 -86.916595 0
138.18489 355.7959 0.31999999 250 250 250 4.4587936 -5.5778804 -88.28273 0
138.62965 353.44815 0.33000001 250 250 250 5.7847576 -3.818007 -89.595833 0
138.62965 353.44815 0.34 250 250 250 5.6718864 -2.5847337 -89.280525 0
139.07443 351.07822 0.33000001 250 250 250 5.0955381 -1.5043769 -90.279922 0
139.07443 351.07822 0.31999999 250 250 250 5.930099 -2.5744805 -89.02935 0
139.57091 348.71939 0.31 250 250 250 6.0699911 -3.9844375 -89.016693 0
139.57091 348.71939 0.31999999 250 250 250 5.9399195 -3.3803334 -89.023285 0
140.07774 346.36057 0.33000001 250 250 250 6.7498217 -3.8319736 -88.802849 0
140.07774 346.36057 0.34 250 250 250 6.1056914 -2.0860748 -87.642303 0
140.66733 344.02386 0.34 250 250 250 5.8187013 -2.1720212 -86.735451 0
140.66733 344.02386 0.34 250 250 250 5.0845485 -2.7977962 -86.595947 0
141.2052 341.67609 0.34 250 250 250 3.9322467 -5.129705 -87.099525 0
141.2052 341.67609 0.34 250 250 250 5.2836175 -5.5203919 -88.837509 0
141.681 339.32834 0.34 250 250 250 4.5723829 -4.3943105 -89.24881 0
141.681 339.32834 0.34 250 250 250 4.7922306 -2.2627289 -90.644844 0
142.11542 336.9584 0.33000001 250 250 250 5.1522508 -2.9567828 -90.080582 0
142.11542 336.9584 0.33000001 250 250 250 5.3742857 -4.508369 -89.801414 0
142.57054 334.5885 0.34 250 250 250 5.7422352 -3.1413836 -89.610191 0
142.57054 334.5885 0.34 250 250 250 5.8597612 -1.9545938 -88.811745 0
143.11874 332.24075 0.34 250 250 250 5.3200812 -1.0790893 -87.524673 0
143.11874 332.24075 0.34 250 250 250 4.874536 -1.7082487 -87.194069 0
143.62558 329.8819 0.34999999 250 250 250 3.9613962 -2.8273871 -87.984924 0
143.62558 329.8819 0.34999999 250 250 250 5.0532594 -5.3510237 -89.669601 0
144.00829 327.51199 0.34999999 250 250 250 4.3707261 -4.5848894 -90.879234 0
144.00829 327.51199 0.34999999 250 250 250 4.8781919 -3.0898168 -93.091614 0
144.34961 325.11993 0.33000001 250 250 250 5.8943758 -3.9840508 -92.497566 0
144.34961 325.11993 0.33000001 250 250 250 6.2625637 -4.2630792 -91.624489 0
144.81506 322.76108 0.34 250 250 250 6.29178 -3.9394577 -89.928261 0
144.81506 322.76108 0.34999999 250 250 250 7.5934329 -2.9261785 -89.256882 0
145.31155 320.42441 0.34999999 250 250 250 6.3425894 -3.0011847 -88.831917 0
145.31155 320.42441 0.34 250 250 250 5.2517247 -4.3210273 -87.991127 0
145.83907 318.07663 0.33000001 250 250 250 5.22751 -4.5858059 -87.622215 0
145.83907 318.07663 0.34 250 250 250 4.9138441 -5.4515743 -88.362686 0
146.31487 315.73993 0.34 250 250 250 6.5577979 -3.4083846 -88.608421 0
146.31487 315.73993 0.34999999 250 250 250 6.7713618 -3.1598663 -90.004135 0
146.72861 313.3811 0.34 250 250 250 6.358242 -2.5139005 -90.619972 0
146.72861 313.3811 0.33000001 250 250 250 5.8400211 -3.9626243 -89.526894 0
147.23543 311.05548 0.33000001 250 250 250 5.7198844 -4.8329806 -88.534142 0
147.23543 311.05548 0.34 250 250 250 6.0110683 -5.8913755 -86.515694 0
147.9388 308.74094 0.34 250 250 250 7.2821865 -4.3035593 -83.996719 0
147.9388 308.74094 0.34 250 250 250 6.038753 -2.9588811 -82.394798 0
148.71457 306.4707 0.33000001 250 250 250 5.607091 -2.4868023 -81.693375 0
148.71457 306.4707 0.33000001 250 250 250 5.647213 -3.2949541 -82.526222 0
149.40759 304.18936 0.34 250 250 250 5.0728188 -5.7525783 -83.557487 0
149.40759 304.18936 0.34999999 250 250 250 6.000001 -5.1840053 -85.285355 0
149.99718 301.85269 0.34999999 250 250 250 5.885222 -4.2020125 -85.991821 0
149.99718 301.85269 0.34 250 250 250 6.2831473 -3.8913543 -86.389908 0
150.62813 299.53815 0.33000001 250 250 250 6.5575304 -5.1200595 -85.214928 0
150.62813 299.53815 0.31999999 250 250 250 6.2574582 -4.7231288 -83.67054 0
151.39355 297.27896 0.33000001 250 250 250 7.3760118 -3.322608 -82.120041 0
151.39355 297.27896 0.33000001 250 250 250 6.2602825 -5.116086 -77.16111 0
152.47964 295.11945 0.33000001 250 250 250 5.4921536 -3.1917918 -73.848701 0
152.47964 295.11945 0.33000001 250 250 250 5.0195861 -3.6908004 -71.459549 0
153.68987 293.04855 0.31999999 250 250 250 4.403789 -2.9642372 -70.119659 0
153.68987 293.04855 0.33000001 250 250 250 4.358016 -4.1059957 -68.94574 0
154.9725 291.03299 0.33000001 250 250 250 4.9697165 -3.9483237 -67.793625 0
154.9725 291.03299 0.34 250 250 250 5.1109514 -4.0940385 -66.89312 0
156.30684 289.03961 0.34 250 250 250 5.1847401 -2.7082779 -66.328247 0
156.30684 289.03961 0.33000001 250 250 250 5.3802934 -2.362577 -65.396187 0
157.71359 287.09052 0.31999999 250 250 250 5.0383878 -3.1658816 -64.145226 0
157.71359 287.09052 0.33000001 250 250 250 5.074245 -4.5560489 -62.561359 0
159.19275 285.20786 0.34 250 250 250 6.0081177 -4.0373616 -61.821732 0
159.19275 285.20786 0.34 250 250 250 6.0101151 -3.2714727 -60.150646 0
160.77536 283.39166 0.34 250 250 250 5.0821738 -2.9850047 -58.659245 0
160.77536 283.39166 0.34 250 250 250 4.7656689 -2.8332384 -58.46106 0
162.3683 281.56436 0.34 250 250 250 4.8326459 -3.4166739 -58.599045 0
162.3683 281.56436 0.34999999 250 250 250 3.8508654 -4.9455895 -59.656277 0
163.88884 279.70386 0.36000001 250 250 250 5.3924727 -5.8801966 -60.347382 0
163.88884 279.70386 0.36000001 250 250 250 4.53021 -4.5943842 -60.222553 0
165.41971 277.8212 0.36000001 250 250 250 4.9716101 -4.5112495 -60.458031 0
165.41971 277.8212 0.34999999 250 250 250 5.6072021 -5.1966295 -58.738941 0
167.0023 276.005 0.34999999 250 250 250 6.0501218 -5.8936715 -58.205898 0
167.0023 276.005 0.36000001 250 250 250 6.2720418 -6.7266188 -56.93047 0
168.63663 274.2663 0.37 250 250 250 6.9726028 -6.6848803 -56.234978 0
168.63663 274.2663 0.37 250 250 250 6.6796093 -6.1725788 -55.156151 0
170.31232 272.5387 0.36000001 250 250 250 5.7375112 -6.2756701 -55.185123 0
170.31232 272.5387 0.34999999 250 250 250 5.476285 -6.1283736 -56.414749 0
171.9156 270.73355 0.34999999 250 250 250 5.7463808 -6.4897094 -57.496883 0
171.9156 270.73355 0.36000001 250 250 250 5.6793585 -6.2736869 -58.251659 0
173.45683 268.87305 0.37 250 250 250 6.1844864 -5.9559379 -59.361362 0
173.45683 268.87305 0.36000001 250 250 250 6.5424457 -4.6684299 -59.917133 0
175.00839 267.02362 0.34999999 250 250 250 6.6090422 -5.5415869 -59.299152 0
175.00839 267.02362 0.34999999 250 250 250 6.6668205 -6.4606485 -58.895966 0
176.58064 265.19635 0.34999999 250 250 250 6.1977806 -7.5715876 -58.198685 0
176.58064 265.19635 0.36000001 250 250 250 6.5078626 -6.8832998 -57.643364 0
178.24599 263.42444 0.36000001 250 250 250 7.3868179 -5.9094362 -55.819771 0
179.89066 261.67465 0.34999999 250 250 250 6.2706985 -5.6299472 -55.080624 0
179.89066 261.67465 0.34 250 250 250 5.936389 -4.7494678 -55.633022 0
181.45256 259.84738 0.34 250 250 250 5.9462552 -5.017663 -56.882359 0
181.45256 259.84738 0.34999999 250 250 250 5.010006 -6.4757543 -58.258667 0
182.96274 257.9758 0.34999999 250 250 250 6.3560066 -5.9594169 -59.645908 0
182.96274 257.9758 0.34999999 250 250 250 5.7302804 -4.7539024 -59.898937 0
184.47293 256.12637 0.34 250 250 250 5.9473147 -4.3861775 -60.793446 0
184.47293 256.12637 0.33000001 250 250 250 6.7421112 -5.2781692 -59.194595 0
186.04518 254.28801 0.31999999 250 250 250 6.258532 -5.925199 -58.652046 0
186.04518 254.28801 0.33000001 250 250 250 6.9710779 -5.491076 -57.89835 0
187.71053 252.54932 0.34 250 250 250 8.0566883 -4.6104536 -56.417866 0
187.71053 252.54932 0.34 250 250 250 6.4163933 -4.5491681 -54.940739 0
189.32416 250.7774 0.33000001 250 250 250 5.7389903 -4.5228744 -55.176285 0
189.32416 250.7774 0.31999999 250 250 250 5.8786502 -5.1066103 -56.181267 0
190.87572 248.93904 0.33000001 250 250 250 5.0229473 -6.4525423 -57.609486 0
190.87572 248.93904 0.34 250 250 250 6.580925 -5.3212185 -58.665352 0
192.3652 247.0453 0.34 250 250 250 5.8191757 -4.4180884 -59.227749 0
192.3652 247.0453 0.33000001 250 250 250 6.4133801 -3.3592587 -60.239681 0
193.89609 245.1848 0.31 250 250 250 7.1537685 -3.7137804 -59.228458 0
193.89609 245.1848 0.31 250 250 250 7.2059436 -4.493875 -58.81459 0
195.46832 243.37967 0.31999999 250 250 250 6.9915028 -5.3769341 -58.353008 0
195.46832 243.37967 0.33000001 250 250 250 7.9500723 -5.6798668 -57.167725 0
197.10265 241.59668 0.34 250 250 250 7.301825 -4.4584422 -56.103237 0
197.10265 241.59668 0.33000001 250 250 250 6.4470859 -4.040132 -55.801865 0
198.68523 239.79153 0.31999999 250 250 250 5.8004556 -4.1213756 -56.219257 0
198.68523 239.79153 0.31999999 250 250 250 5.1450067 -5.1186914 -56.859531 0
200.19542 237.91995 0.34 250 250 250 5.488471 -4.5790825 -58.664341 0
200.19542 237.91995 0.34999999 250 250 250 5.8787231 -4.6933494 -59.219265 0
201.66422 236.00407 0.34 250 250 250 5.975245 -3.3834651 -61.180664 0
201.66422 236.00407 0.33000001 250 250 250 5.8232794 -4.8122902 -60.39761 0
203.18475 234.15463 0.31999999 250 250 250 5.9339504 -5.7196202 -59.782742 0
203.18475 234.15463 0.33000001 250 250 250 5.738502 -5.5554776 -58.71043 0
204.77768 232.3495 0.34 250 250 250 7.3588228 -3.8642051 -57.826057 0
204.77768 232.3495 0.34 250 250 250 7.3002062 -1.8045202 -56.541107 0
206.3913 230.55544 0.33000001 250 250 250 5.7490911 -2.5033748 -55.664192 0
206.3913 230.55544 0.31999999 250 250 250 5.6109867 -1.8021877 -56.199898 0
207.96355 228.73923 0.33000001 250 250 250 5.2591238 -3.0831404 -56.616474 0
207.96355 228.73923 0.34 250 250 250 4.8658223 -3.3410652 -56.778252 0
209.5358 226.92302 0.36000001 250 250 250 5.6513257 -2.9299064 -57.447773 0
209.5358 226.92302 0.37 250 250 250 4.9773426 -2.0233736 -56.849041 0
211.13907 225.14003 0.37 250 250 250 4.8430901 -2.1336217 -56.761955 0
211.13907 225.14001 0.36000001 250 250 250 4.7423368 -4.1802845 -55.696911 0
212.77338 223.37918 0.36000001 250 250 250 4.8809395 -4.7603207 -55.165905 0
212.77338 223.37918 0.37 250 250 250 5.6915312 -3.0052295 -54.47216 0
214.52147 221.718 0.38999999 250 250 250 7.5039072 -1.2013849 -52.600895 0
214.52147 221.718 0.38 250 250 250 6.5929422 -1.8671618 -51.167198 0
216.19716 219.96823 0.37 250 250 250 6.0634184 -0.87657505 -51.949829 0
216.19716 219.96823 0.37 250 250 250 6.2610064 -1.1490895 -53.945198 0
217.77974 218.1631 0.38999999 250 250 250 4.8627257 -3.3293905 -55.149349 0
217.77974 218.1631 0.41 250 250 250 5.7652063 -3.3512454 -56.141201 0
219.3313 216.32474 0.41999999 250 250 250 5.7370677 -2.7206702 -56.44923 0
219.3313 216.32474 0.41 250 250 250 5.8559661 -2.7013259 -57.23011 0
220.90353 214.50853 0.40000001 250 250 250 6.0195746 -3.8008399 -56.559933 0
220.90353 214.50853 0.40000001 250 250 250 5.8524914 -4.184289 -56.319714 0
222.56888 212.75876 0.40000001 250 250 250 6.061439 -4.5643106 -54.872108 0
222.56888 212.75876 0.41 250 250 250 6.4422164 -4.6217327 -53.247398 0
224.31697 211.09758 0.41 250 250 250 6.8595071 -2.4170692 -51.584206 0
224.31697 211.09758 0.40000001 250 250 250 5.7646852 -2.042953 -51.04084 0
225.9823 209.35889 0.38999999 250 250 250 4.5669684 -2.1580422 -52.426643 0
225.9823 209.35889 0.40000001 250 250 250 3.596122 -4.4635262 -53.377037 0
227.57523 207.55374 0.41 250 250 250 3.9206831 -5.733387 -55.368336 0
227.57523 207.55374 0.41 250 250 250 4.5867963 -4.617763 -55.751907 0
229.12679 205.7043 0.40000001 250 250 250 5.8768201 -1.9641601 -57.040737 0
229.12679 205.7043 0.38999999 250 250 250 6.8898306 -2.2922616 -56.90226 0
230.71971 203.91023 0.38 250 250 250 6.9204278 -4.7284698 -56.801121 0
230.71971 203.91023 0.38999999 250 250 250 6.5196357 -5.3786826 -55.410782 0
232.37469 202.1494 0.40000001 250 250 250 6.3173265 -4.4614735 -54.588985 0
232.37469 202.1494 0.40000001 250 250 250 5.4577007 -2.9358416 -53.710228 0
234.01935 200.36639 0.38999999 250 250 250 4.4892244 -2.672998 -53.865997 0
234.01935 200.36639 0.38 250 250 250 3.8806295 -3.3303571 -54.476753 0
235.56056 198.50589 0.38 250 250 250 3.6664097 -4.70574 -55.310963 0
235.56056 198.50589 0.38999999 250 250 250 4.0684948 -4.8430014 -57.615143 0
237.02936 196.62323 0.38999999 250 250 250 4.7393255 -3.5791268 -58.62318 0
237.02936 196.62323 0.38 250 250 250 5.2160287 -1.6749432 -59.108589 0
238.56021 194.74057 0.37 250 250 250 5.1543922 -2.2362664 -58.331039 0
238.56021 194.74057 0.37 250 250 250 5.3391643 -3.040199 -57.497101 0
