ply
format ascii 1.0
comment PCL generated
element vertex 525
property float x
property float y
property float z
property uchar red
property uchar green
property uchar blue
property float nx
property float ny
property float nz
property float curvature
element camera 1
property float view_px
property float view_py
property float view_pz
property float x_axisx
property float x_axisy
property float x_axisz
property float y_axisx
property float y_axisy
property float y_axisz
property float z_axisx
property float z_axisy
property float z_axisz
property float focal
property float scalex
property float scaley
property float centerx
property float centery
property int viewportx
property int viewporty
property float k1
property float k2
end_header
1.3860617 -1.6057807 -0.090000004 250 250 250 1.3153471 -10.051789 113.05643 0
1.3653742 -1.5725577 -0.07 250 250 250 1.8331536 -9.8596468 114.02577 0
1.3550304 -1.5282604 -0.059999999 250 250 250 2.3441594 -9.2935047 114.95486 0
1.3239992 -1.4950373 -0.039999999 250 250 250 2.0443165 -9.7939873 116.46627 0
1.2826242 -1.4396656 -0.02 250 250 250 2.7385907 -11.114643 117.02508 0
1.2412493 -1.3842938 -0.0099999998 250 250 250 3.0913277 -12.241493 116.60026 0
1.1998743 -1.3178477 -0.0099999998 250 250 250 3.6640148 -12.162096 116.28791 0
1.1378119 -1.2403272 0 250 250 250 3.7734754 -10.987352 115.17139 0
1.0757494 -1.1738812 0.0099999998 250 250 250 3.3253176 -10.375375 114.12852 0
1.0240307 -1.107435 0.029999999 250 250 250 1.7303483 -10.683073 112.76557 0
0.97231197 -1.0631377 0.050000001 250 250 250 2.5332463 -11.285132 111.44481 0
0.91024953 -1.0188402 0.059999999 250 250 250 1.3638338 -11.176936 110.88338 0
0.84818703 -0.95239413 0.050000001 250 250 250 2.010555 -9.4742889 111.60732 0
0.78612459 -0.87487364 0.050000001 250 250 250 2.2085295 -8.1157846 112.87363 0
0.71371835 -0.79735321 0.079999998 250 250 250 1.6286362 -9.8111162 115.15006 0
0.64131218 -0.73090714 0.1 250 250 250 1.2792925 -9.5909624 117.13474 0
0.56890595 -0.67553538 0.090000004 250 250 250 1.1824242 -10.364198 118.87302 0
0.49649975 -0.59801489 0.079999998 250 250 250 2.9709997 -10.009856 120.33569 0
0.41374978 -0.52049446 0.079999998 250 250 250 1.880668 -9.6471529 120.14294 0
0.33099982 -0.45404837 0.090000004 250 250 250 -0.11667287 -10.029001 118.94357 0
0.25859362 -0.38760224 0.090000004 250 250 250 0.80277371 -10.197001 118.03336 0
0.1861874 -0.31008181 0.07 250 250 250 1.8602729 -9.6509714 117.13786 0
0.11378119 -0.221487 0.050000001 250 250 250 2.2764685 -8.9362469 117.90357 0
0.031031236 -0.12181785 0.050000001 250 250 250 2.144671 -9.1038504 119.37695 0
-0.041374978 -0.044297401 0.059999999 250 250 250 2.0252788 -8.2660608 120.14841 0
-0.1137812 0.022148699 0.059999999 250 250 250 0.79362571 -10.242686 121.82335 0
-0.20687491 0.099669151 0.029999999 250 250 250 3.2001266 -10.066763 121.77049 0
-0.2999686 0.18826394 0.0099999998 250 250 250 3.4794862 -9.9631662 120.77647 0
-0.39306232 0.26578438 0.0099999998 250 250 250 2.7451777 -11.179527 119.5513 0
-0.47581229 0.32115614 0.0099999998 250 250 250 1.7444439 -11.840136 117.31869 0
-0.54821849 0.38760224 0 250 250 250 3.4797878 -12.064731 114.9539 0
-0.63096845 0.47619703 -0.029999999 250 250 250 4.5194097 -10.212618 115.93076 0
-0.70337468 0.5647918 -0.039999999 250 250 250 3.5692611 -12.057648 117.29588 0
-0.76543713 0.63123792 -0.02 250 250 250 2.6093149 -10.23288 117.79684 0
-0.83784336 0.70875835 -0.02 250 250 250 1.3059454 -10.620516 120.00852 0
-0.94128084 0.77520448 -0.050000001 250 250 250 4.4405518 -10.313093 120.16135 0
-1.0447183 0.85272491 -0.07 250 250 250 3.2957611 -11.22067 119.57948 0
-1.137812 0.91917098 -0.059999999 250 250 250 2.3078523 -10.985092 119.63908 0
-1.2102182 0.9856171 -0.059999999 250 250 250 1.0033478 -11.457247 116.85168 0
-1.2929682 1.0631375 -0.079999998 250 250 250 2.7018659 -12.14078 114.74443 0
-1.3653744 1.1406579 -0.1 250 250 250 2.2499895 -9.7126579 113.74026 0
-1.4481244 1.2514014 -0.11 250 250 250 2.2695808 -10.658124 115.2438 0
-1.5205306 1.3510706 -0.1 250 250 250 1.7166057 -9.8995962 116.15996 0
-1.5929369 1.4396654 -0.079999998 250 250 250 -0.0056310641 -10.756953 119.56285 0
-1.6860305 1.5282601 -0.11 250 250 250 1.6477541 -10.664636 120.01456 0
-1.7791243 1.6168549 -0.13 250 250 250 2.2436271 -12.423723 120.30738 0
-1.872218 1.6943754 -0.13 250 250 250 1.8253241 -12.642041 118.61772 0
-1.9446242 1.7608215 -0.13 250 250 250 0.36923447 -11.332309 116.01097 0
-1.9963429 1.8161932 -0.15000001 250 250 250 1.8267179 -11.298342 114.41684 0
-2.0480616 1.8937136 -0.17 250 250 250 3.0473912 -9.9155378 114.99921 0
-2.1101241 1.9823084 -0.18000001 250 250 250 3.3929071 -10.866663 117.50566 0
-2.1618428 2.0709033 -0.17 250 250 250 2.6295295 -10.435823 118.95374 0
-2.2135618 2.1484237 -0.17 250 250 250 2.673641 -10.683902 123.15263 0
-2.2859678 2.225944 -0.18000001 250 250 250 2.298526 -10.05716 123.63575 0
-2.3583741 2.2923901 -0.2 250 250 250 3.0499122 -10.624903 123.61594 0
-2.4411242 2.3477619 -0.2 250 250 250 1.9421762 -10.376384 121.78566 0
-2.5031865 2.4031336 -0.19 250 250 250 1.8227124 -8.8584957 119.4757 0
-2.5755928 2.4585054 -0.20999999 250 250 250 2.8027847 -8.828722 117.09551 0
-2.6273115 2.5360258 -0.23 250 250 250 4.0897927 -8.5962439 116.5873 0
-2.6790302 2.6246207 -0.23999999 250 250 250 3.00597 -9.7419119 118.9928 0
-2.7410927 2.702141 -0.23 250 250 250 -0.60060477 -11.700919 120.84908 0
-2.813499 2.7796614 -0.23 250 250 250 -1.5757321 -11.232842 123.07241 0
-2.8962491 2.8461075 -0.25 250 250 250 0.1136631 -10.535962 123.14729 0
-2.9789989 2.9236279 -0.25999999 250 250 250 0.90295273 -11.910467 122.38261 0
-3.061749 2.9900742 -0.25999999 250 250 250 0.51663423 -11.655295 119.56394 0
-3.1444988 3.0565202 -0.27000001 250 250 250 0.74855757 -10.399427 115.99664 0
-3.2272489 3.1451149 -0.31 250 250 250 4.1213641 -9.2401505 114.72174 0
-3.309999 3.2447839 -0.34 250 250 250 3.7668319 -9.067627 116.85683 0
-3.382405 3.3223045 -0.34999999 250 250 250 3.7164938 -10.908934 121.05814 0
-3.4444675 3.4108992 -0.36000001 250 250 250 2.8310215 -11.215671 124.67122 0
-3.50653 3.4884195 -0.38999999 250 250 250 2.7783084 -9.1660023 123.21828 0
-3.5685925 3.5659399 -0.43000001 250 250 250 2.2508721 -11.2636 123.68238 0
-3.6409988 3.6434605 -0.46000001 250 250 250 3.2493231 -10.947248 121.56471 0
-3.7134051 3.7099066 -0.47 250 250 250 1.2025385 -10.929774 119.11777 0
-3.7754674 3.7763526 -0.50999999 250 250 250 2.9628663 -9.5883427 117.42947 0
-3.8582175 3.853873 -0.55000001 250 250 250 3.6032355 -10.268589 119.98359 0
-3.9306238 3.9313934 -0.56 250 250 250 3.6780663 -11.732592 123.47124 0
-3.9926863 4.008914 -0.56 250 250 250 3.4256618 -12.637957 125.81114 0
-4.0547485 4.0753598 -0.56999999 250 250 250 1.0442061 -12.548258 124.86377 0
-4.1374989 4.1418061 -0.60000002 250 250 250 2.8186274 -11.555858 124.11504 0
-4.2202487 4.208252 -0.62 250 250 250 2.6935918 -11.926153 121.85971 0
-4.3029985 4.2746983 -0.62 250 250 250 1.6987649 -12.107089 120.91376 0
-4.3857484 4.3300695 -0.62 250 250 250 1.6139287 -11.778164 119.45702 0
-4.4581547 4.3854413 -0.63999999 250 250 250 4.3787026 -10.990784 119.10542 0
-4.530561 4.4408131 -0.66000003 250 250 250 3.9753094 -9.9249487 122.28923 0
-4.5926237 4.4961848 -0.64999998 250 250 250 3.6261978 -12.382539 128.27232 0
-4.6443424 4.5515566 -0.63 250 250 250 1.8936175 -11.906095 134.48088 0
-4.7167487 4.6069283 -0.63 250 250 250 -0.39330599 -11.500265 138.78424 0
-4.7994986 4.6512256 -0.66000003 250 250 250 0.28115129 -10.830278 142.21954 0
-4.8822484 4.7065973 -0.67000002 250 250 250 -0.36707509 -11.46235 144.30153 0
-4.9649987 4.750895 -0.66000003 250 250 250 -0.64864576 -12.509493 146.5862 0
-5.0580921 4.7951922 -0.67000002 250 250 250 -1.7766827 -12.628233 147.63609 0
-5.151186 4.8284154 -0.69999999 250 250 250 1.9937071 -10.945207 148.15706 0
-5.264967 4.850564 -0.72000003 250 250 250 2.3437226 -10.323537 152.34413 0
-5.3684049 4.8727126 -0.72000003 250 250 250 1.6481882 -12.548496 158.91953 0
-5.4614983 4.8837867 -0.72000003 250 250 250 1.2567679 -10.752276 164.47981 0
-5.5649357 4.8837867 -0.73000002 250 250 250 -0.14026605 -10.778659 167.84448 0
-5.6683731 4.8837867 -0.75 250 250 250 1.7277074 -10.746964 171.17622 0
-5.7821546 4.8727121 -0.75 250 250 250 1.9703066 -10.754321 170.76898 0
-5.885592 4.8505635 -0.73000002 250 250 250 0.8360427 -11.888179 171.78139 0
-5.9890294 4.8173404 -0.75 250 250 250 1.6970046 -9.3284903 171.64694 0
-6.1131544 4.7619686 -0.76999998 250 250 250 2.473439 -9.505641 174.66177 0
-6.2372794 4.7176714 -0.75999999 250 250 250 2.7189119 -10.651446 -178.66617 0
-6.3510604 4.6622996 -0.74000001 250 250 250 1.6467526 -9.9279499 -171.67198 0
-6.4544978 4.6069279 -0.74000001 250 250 250 -0.65814489 -8.5509834 -168.86041 0
-6.5682793 4.5515561 -0.75999999 250 250 250 0.97060382 -9.0066299 -164.98964 0
-6.6717167 4.5072584 -0.75999999 250 250 250 1.1628201 -9.6432276 -165.28996 0
-6.7751541 4.4518867 -0.74000001 250 250 250 0.92148578 -11.5777 -165.10988 0
-6.8889351 4.3743663 -0.75 250 250 250 1.4278152 -8.9265108 -167.05203 0
-7.0337477 4.3189945 -0.77999997 250 250 250 3.3617713 -9.8855324 -165.6467 0
-7.1785603 4.2636228 -0.76999998 250 250 250 1.9783493 -12.312117 -162.53569 0
-7.3026848 4.2193251 -0.74000001 250 250 250 1.2022731 -14.488781 -158.18517 0
-7.4371538 4.1750278 -0.72000003 250 250 250 0.041711111 -11.971989 -156.77725 0
-7.5405912 4.1307302 -0.70999998 250 250 250 2.0700428 -10.617549 -154.2196 0
-7.6543722 4.0864329 -0.67000002 250 250 250 2.5539768 -10.811415 -155.44388 0
-7.7578101 4.0421352 -0.61000001 250 250 250 0.95949793 -8.4816227 -156.86818 0
-7.8612475 3.9867637 -0.58999997 250 250 250 1.4204212 -7.8583307 -159.06218 0
-7.9853725 3.9313917 -0.58999997 250 250 250 2.3608711 -7.3745203 -158.41559 0
-8.1198406 3.8870945 -0.56999999 250 250 250 3.7448843 -7.6985154 -156.603 0
-8.2646532 3.842797 -0.54000002 250 250 250 1.7850361 -10.366737 -153.34833 0
-8.3784351 3.787425 -0.50999999 250 250 250 1.9068202 -10.630862 -151.06499 0
-8.4922161 3.7099047 -0.51999998 250 250 250 2.006459 -8.7473917 -151.60516 0
-8.6163406 3.6102355 -0.55000001 250 250 250 1.2892621 -9.9852562 -151.72894 0
-8.7301216 3.4994919 -0.55000001 250 250 250 2.1498365 -10.460096 -153.01456 0
-8.833559 3.3998227 -0.51999998 250 250 250 0.5359295 -14.204929 -153.89804 0
-8.9369965 3.3001535 -0.51999998 250 250 250 2.122962 -10.913813 -155.67233 0
-9.0300903 3.2004843 -0.51999998 250 250 250 3.023329 -11.310738 -153.91801 0
-9.1128407 3.1118894 -0.49000001 250 250 250 3.516444 -11.920527 -152.26442 0
-9.19559 3.034369 -0.46000001 250 250 250 4.0426993 -11.857209 -149.43199 0
-9.2679968 2.9457741 -0.44 250 250 250 2.0421488 -10.522314 -150.91336 0
-9.3404026 2.8571794 -0.44 250 250 250 3.4905221 -9.4842262 -149.56479 0
-9.4128084 2.7685845 -0.44 250 250 250 3.3498008 -9.5381784 -150.66718 0
-9.4748716 2.6689153 -0.41 250 250 250 2.328186 -9.4302063 -151.18921 0
-9.5369339 2.5803206 -0.38 250 250 250 2.6746786 -8.0595608 -153.21274 0
-9.6093397 2.5138743 -0.38 250 250 250 3.4280384 -7.5716166 -154.24078 0
-9.7024336 2.4474282 -0.38 250 250 250 3.8819022 -8.2255964 -153.05264 0
-9.805871 2.4031308 -0.34999999 250 250 250 4.6755409 -10.085185 -149.86255 0
-9.8886213 2.3366847 -0.31999999 250 250 250 4.2300019 -11.690592 -145.39474 0
-9.9713707 2.2702384 -0.31999999 250 250 250 2.6896715 -10.574052 -145.43535 0
-10.054121 2.1816437 -0.31999999 250 250 250 3.6096926 -10.797104 -144.73091 0
-10.13687 2.0930488 -0.31999999 250 250 250 4.4609733 -10.733555 -145.5154 0
-10.229964 2.0044539 -0.28999999 250 250 250 3.4157209 -11.152803 -145.34082 0
-10.312715 1.9269334 -0.27000001 250 250 250 2.9227185 -11.145792 -145.34157 0
-10.416152 1.8272643 -0.27000001 250 250 250 4.3620596 -11.087092 -144.24316 0
-10.509246 1.7165207 -0.28 250 250 250 4.3457985 -10.40006 -141.104 0
-10.602339 1.5947028 -0.25999999 250 250 250 3.6075783 -12.119706 -135.13507 0
-10.685089 1.4728849 -0.23999999 250 250 250 1.8992238 -11.276608 -128.87073 0
-10.767839 1.3842901 -0.22 250 250 250 0.67425901 -11.086888 -123.49741 0
-10.840245 1.2846209 -0.20999999 250 250 250 2.7970998 -11.26355 -119.10001 0
-10.891964 1.1849517 -0.19 250 250 250 1.4206021 -13.703053 -117.3126 0
-10.933339 1.0742081 -0.17 250 250 250 0.38077879 -13.653571 -116.15495 0
-10.954026 0.96346468 -0.16 250 250 250 0.5470975 -12.519154 -117.4317 0
-10.974713 0.84164679 -0.17 250 250 250 2.1509433 -13.065006 -115.95483 0
-10.985057 0.7087546 -0.19 250 250 250 2.6749558 -13.132837 -112.76781 0
-10.985057 0.57586241 -0.17 250 250 250 2.8392622 -12.008004 -107.81672 0
-10.985057 0.45404455 -0.17 250 250 250 2.5945315 -11.15263 -101.63605 0
-10.974713 0.29900366 -0.18000001 250 250 250 2.189105 -11.437894 -96.926979 0
-10.954025 0.14396279 -0.2 250 250 250 2.9329998 -11.925535 -94.244751 0
-10.933338 -3.7415823e-06 -0.2 250 250 250 2.2668715 -11.8259 -94.038399 0
-10.902307 -0.13289592 -0.18000001 250 250 250 -0.88270187 -11.686336 -92.990959 0
-10.881619 -0.27686244 -0.19 250 250 250 0.034923397 -11.58512 -94.621277 0
-10.860931 -0.42082897 -0.22 250 250 250 2.0751948 -11.151168 -95.166107 0
-10.840244 -0.57586986 -0.23999999 250 250 250 3.4336233 -11.325835 -92.646805 0
-10.819556 -0.70876205 -0.23 250 250 250 2.3692837 -11.214756 -89.010773 0
-10.798869 -0.84165418 -0.22 250 250 250 1.788638 -10.970693 -84.578354 0
-10.757494 -0.96347201 -0.23 250 250 250 2.0205672 -10.411916 -84.095619 0
-10.695431 -1.0852898 -0.25 250 250 250 2.4427364 -12.429931 -83.008682 0
-10.643712 -1.2071077 -0.23999999 250 250 250 2.0977216 -11.204909 -85.030418 0
-10.602337 -1.3178511 -0.22 250 250 250 -0.20191042 -12.945756 -85.468353 0
-10.560963 -1.4396689 -0.22 250 250 250 -0.81327939 -11.827089 -89.676445 0
-10.529931 -1.5614867 -0.23999999 250 250 250 0.80765688 -12.001306 -89.791344 0
-10.488556 -1.6833045 -0.25 250 250 250 1.7273211 -13.121673 -88.345268 0
-10.467868 -1.7940481 -0.23999999 250 250 250 1.3169862 -12.511689 -88.237228 0
-10.436837 -1.9047915 -0.23 250 250 250 2.2262688 -11.412472 -86.047104 0
-10.405806 -2.0266094 -0.23999999 250 250 250 2.5770061 -9.1820049 -88.91394 0
-10.374774 -2.1705759 -0.25 250 250 250 2.3751142 -11.997956 -89.224876 0
-10.343743 -2.2923937 -0.22 250 250 250 1.1291562 -11.797559 -92.499451 0
-10.312712 -2.3920629 -0.17 250 250 250 -2.1733801 -10.486366 -95.009773 0
-10.302368 -2.4917319 -0.15000001 250 250 250 -2.267422 -11.450394 -98.505699 0
-10.292025 -2.6024754 -0.17 250 250 250 0.13485099 -9.2450781 -101.2397 0
-10.312712 -2.7353678 -0.19 250 250 250 2.5751457 -10.251127 -101.49976 0
-10.323055 -2.8461111 -0.17 250 250 250 2.3940961 -11.925285 -101.24813 0
-10.323055 -2.9679291 -0.15000001 250 250 250 0.86615551 -12.357298 -99.754501 0
-10.302368 -3.089747 -0.16 250 250 250 -0.26735175 -12.479222 -99.312889 0
-10.292024 -3.2337134 -0.19 250 250 250 1.4392715 -11.916399 -98.15448 0
-10.28168 -3.3666055 -0.18000001 250 250 250 0.93703431 -12.699795 -100.38214 0
-10.260992 -3.4884233 -0.17 250 250 250 0.17684299 -13.91277 -104.1042 0
-10.250648 -3.6213155 -0.18000001 250 250 250 1.6447345 -11.884118 -108.5924 0
-10.240305 -3.7652822 -0.22 250 250 250 3.1594608 -11.035513 -109.6499 0
-10.219617 -3.9203229 -0.22 250 250 250 2.7062836 -10.529783 -106.95651 0
-10.209273 -4.053215 -0.2 250 250 250 1.2864193 -11.732094 -105.28958 0
-10.178242 -4.1971817 -0.19 250 250 250 1.4542074 -11.071725 -99.439812 0
-10.136867 -4.3522224 -0.20999999 250 250 250 3.6068599 -10.199817 -97.588051 0
-10.105836 -4.5072637 -0.22 250 250 250 4.1052852 -11.025875 -97.160683 0
-10.074804 -4.6401558 -0.2 250 250 250 1.3279645 -10.719831 -99.994637 0
-10.043773 -4.7730479 -0.19 250 250 250 1.1804992 -9.8167419 -102.51888 0
-10.012742 -4.8948655 -0.20999999 250 250 250 3.3853223 -9.5157328 -105.05895 0
-9.992054 -5.0388322 -0.23999999 250 250 250 3.8356097 -9.314642 -104.4076 0
-9.9713669 -5.1717243 -0.22 250 250 250 3.086642 -10.417109 -101.98677 0
-9.9403353 -5.2935424 -0.2 250 250 250 3.0245609 -11.100904 -98.478279 0
-9.9093037 -5.4264345 -0.20999999 250 250 250 1.589591 -11.855449 -96.119064 0
-9.8679285 -5.5593266 -0.25 250 250 250 2.99453 -11.053894 -95.247902 0
-9.8265533 -5.6922188 -0.25999999 250 250 250 1.6786262 -10.768802 -96.054863 0
-9.7955227 -5.8140364 -0.23999999 250 250 250 -0.11398327 -9.7903624 -98.959511 0
-9.7644911 -5.9358544 -0.25999999 250 250 250 -0.11997825 -8.4329271 -104.05034 0
-9.743804 -6.0687466 -0.28999999 250 250 250 2.0473859 -7.6447501 -106.39473 0
-9.7231159 -6.2237873 -0.30000001 250 250 250 2.053318 -6.3089895 -105.70667 0
-9.7127724 -6.367754 -0.28 250 250 250 0.57551217 -8.1270866 -102.65782 0
-9.6817408 -6.5006461 -0.25999999 250 250 250 1.7440128 -8.570241 -98.748734 0
-9.6507092 -6.6335382 -0.28 250 250 250 3.4264922 -8.7448912 -98.342514 0
-9.6196785 -6.7775049 -0.30000001 250 250 250 2.8528786 -9.8305769 -97.759064 0
-9.5989904 -6.9214711 -0.28999999 250 250 250 1.166496 -10.022061 -99.378212 0
-9.5783033 -7.0211406 -0.27000001 250 250 250 0.68543148 -10.06752 -102.37923 0
-9.5783033 -7.1208096 -0.28 250 250 250 1.8452623 -9.9377747 -107.62594 0
-9.5783033 -7.2537017 -0.31999999 250 250 250 3.9850013 -10.517524 -107.68266 0
-9.5886469 -7.3976684 -0.33000001 250 250 250 5.691473 -11.087083 -105.0503 0
-9.5989904 -7.5305605 -0.31 250 250 250 3.2884765 -10.855835 -102.17758 0
-9.5989904 -7.6523781 -0.31 250 250 250 1.9611973 -11.468264 -98.022629 0
-9.5783024 -7.7963448 -0.34 250 250 250 4.0300126 -12.003279 -96.126472 0
-9.5679588 -7.9403114 -0.34 250 250 250 3.6886399 -11.622857 -97.241119 0
-9.5679588 -8.0732031 -0.33000001 250 250 250 1.2502004 -9.993926 -99.911041 0
-9.5576153 -8.1950216 -0.31 250 250 250 0.81272334 -10.935834 -101.84671 0
-9.5576153 -8.3057652 -0.33000001 250 250 250 1.4520534 -9.6611462 -103.46709 0
-9.5679588 -8.4386568 -0.36000001 250 250 250 2.5679176 -9.9689322 -102.58343 0
-9.5989895 -8.5715494 -0.37 250 250 250 2.5299795 -10.069659 -100.21598 0
-9.6300211 -8.6822929 -0.36000001 250 250 250 1.3524265 -10.712415 -98.30732 0
-9.6507082 -8.7930365 -0.34999999 250 250 250 0.11766047 -10.924058 -96.896042 0
-9.6713953 -8.90378 -0.37 250 250 250 1.9975072 -10.954877 -97.573486 0
-9.6817389 -9.0255976 -0.38999999 250 250 250 1.4399059 -10.937374 -99.474113 0
-9.6920824 -9.1584902 -0.40000001 250 250 250 0.85296345 -9.9707298 -102.12026 0
-9.6920824 -9.2692337 -0.38999999 250 250 250 0.67787045 -8.7128258 -103.59061 0
-9.6920824 -9.3689022 -0.38999999 250 250 250 0.13147175 -9.7987442 -107.36691 0
-9.6817389 -9.4796457 -0.41 250 250 250 2.1537294 -10.591663 -107.81761 0
-9.6920824 -9.6125383 -0.43000001 250 250 250 3.3677967 -9.0363302 -106.53602 0
-9.7127695 -9.7343559 -0.41999999 250 250 250 2.9314988 -9.5856113 -103.36244 0
-9.7334576 -9.8450994 -0.40000001 250 250 250 2.2099431 -10.863655 -100.03178 0
-9.7334576 -9.955843 -0.38999999 250 250 250 1.8140064 -11.71597 -96.21048 0
-9.7334576 -10.077661 -0.41 250 250 250 3.6895914 -11.366318 -95.104454 0
-9.7334576 -10.232701 -0.43000001 250 250 250 2.4488816 -10.864921 -95.0998 0
-9.7231131 -10.365594 -0.43000001 250 250 250 0.71322376 -11.270634 -95.934471 0
-9.7127695 -10.476337 -0.41 250 250 250 -0.72027272 -10.95108 -98.969658 0
-9.702426 -10.598155 -0.41 250 250 250 0.25210953 -11.257369 -101.21525 0
-9.7127695 -10.731048 -0.44 250 250 250 2.3113685 -10.361588 -102.04189 0
-9.7334566 -10.875013 -0.46000001 250 250 250 2.1583397 -10.83131 -101.10907 0
-9.7541437 -11.030055 -0.44 250 250 250 1.7866932 -13.444467 -98.158371 0
-9.7541437 -11.129724 -0.40000001 250 250 250 0.065350398 -15.235751 -93.801048 0
-9.7541437 -11.229393 -0.40000001 250 250 250 0.38765615 -15.376151 -94.49131 0
-9.7334566 -11.37336 -0.41999999 250 250 250 1.1314189 -15.666205 -93.478951 0
-9.7231131 -11.517326 -0.41999999 250 250 250 0.13832222 -14.572141 -95.688286 0
-9.7127686 -11.650218 -0.41 250 250 250 -1.5161144 -14.220005 -96.842354 0
-9.702425 -11.772037 -0.41 250 250 250 -0.63076305 -14.821625 -100.71915 0
-9.6920815 -11.904928 -0.44 250 250 250 2.295038 -13.914383 -102.90208 0
-9.6817369 -12.048895 -0.46000001 250 250 250 2.0593619 -13.316323 -101.40131 0
-9.6713934 -12.181787 -0.44999999 250 250 250 1.8371412 -14.405387 -98.537132 0
-9.6610498 -12.303605 -0.44 250 250 250 1.2507097 -13.248511 -95.005417 0
-9.6403618 -12.436497 -0.44999999 250 250 250 0.72348118 -11.454406 -95.290688 0
-9.6093311 -12.580463 -0.47999999 250 250 250 2.0632234 -12.336752 -93.776817 0
-9.5782995 -12.735504 -0.47999999 250 250 250 1.5902179 -13.041898 -94.532875 0
-9.5576115 -12.868397 -0.46000001 250 250 250 -0.4431209 -11.77148 -95.915115 0
-9.5369244 -13.012363 -0.47 250 250 250 0.95435756 -11.376827 -98.620667 0
-9.5162363 -13.167404 -0.5 250 250 250 3.5932 -10.868287 -100.59422 0
-9.5058928 -13.311371 -0.5 250 250 250 2.847657 -10.913254 -98.715614 0
-9.4955492 -13.433188 -0.49000001 250 250 250 1.4914691 -11.532101 -98.788864 0
-9.4645176 -13.56608 -0.47999999 250 250 250 0.57292354 -10.589778 -93.698967 0
-9.4231424 -13.721121 -0.49000001 250 250 250 1.3406761 -10.024608 -92.681091 0
-9.3714237 -13.865088 -0.50999999 250 250 250 1.5290289 -11.297547 -91.208923 0
-9.3300486 -14.009054 -0.49000001 250 250 250 -1.0007259 -10.478898 -94.153198 0
-9.2990179 -14.141947 -0.47999999 250 250 250 -0.8385976 -9.8407192 -96.149597 0
-9.2783298 -14.274838 -0.5 250 250 250 1.1039864 -9.5004902 -99.492226 0
-9.2783298 -14.440954 -0.51999998 250 250 250 1.8484554 -9.4988794 -99.560898 0
-9.2679863 -14.573846 -0.5 250 250 250 1.0244759 -11.122021 -97.93573 0
-9.2576427 -14.706738 -0.47999999 250 250 250 1.2439977 -10.136651 -95.50174 0
-9.2369547 -14.83963 -0.49000001 250 250 250 0.91555935 -11.468014 -94.723824 0
-9.205924 -14.994671 -0.51999998 250 250 250 1.6654725 -12.505219 -93.271614 0
-9.185236 -15.138638 -0.50999999 250 250 250 1.2407753 -12.109518 -93.828606 0
-9.1748924 -15.282604 -0.47999999 250 250 250 0.037337229 -10.544704 -96.880386 0
-9.185236 -15.426571 -0.49000001 250 250 250 -0.21010643 -10.289673 -99.370781 0
-9.185236 -15.581612 -0.51999998 250 250 250 1.3879086 -8.9000921 -99.74366 0
-9.185236 -15.725578 -0.51999998 250 250 250 0.66281354 -11.208149 -95.629028 0
-9.1748915 -15.858471 -0.51999998 250 250 250 -0.077120095 -11.57586 -88.931244 0
-9.1542044 -15.991363 -0.51999998 250 250 250 -3.4795949 -11.780715 -82.432129 0
-9.1231728 -16.135328 -0.55000001 250 250 250 -1.6151966 -10.014087 -79.265709 0
-9.0817976 -16.279295 -0.56 250 250 250 -2.4685037 -11.101548 -77.804474 0
-9.0404234 -16.412188 -0.54000002 250 250 250 -2.7067919 -11.122714 -77.647911 0
-8.9887047 -16.54508 -0.54000002 250 250 250 -2.7536302 -11.159639 -75.882607 0
-8.936985 -16.689047 -0.56999999 250 250 250 0.0070765028 -11.298047 -74.000725 0
-8.8852663 -16.810863 -0.57999998 250 250 250 1.3907193 -11.50909 -71.654732 0
-8.823204 -16.932682 -0.57999998 250 250 250 1.7157031 -13.354342 -66.495766 0
-8.7507982 -17.043425 -0.56999999 250 250 250 0.57962567 -12.938983 -58.637131 0
-8.688736 -17.143095 -0.57999998 250 250 250 -1.2949435 -10.92902 -56.637989 0
-8.5956421 -17.242764 -0.60000002 250 250 250 -0.2830759 -11.432935 -52.894291 0
-8.5128918 -17.331358 -0.58999997 250 250 250 0.034571644 -11.978065 -52.512539 0
-8.4611731 -17.408878 -0.56999999 250 250 250 -0.84410572 -12.352844 -53.235527 0
-8.4094543 -17.497473 -0.58999997 250 250 250 -0.96593666 -11.425517 -55.680546 0
-8.3370485 -17.586069 -0.62 250 250 250 0.76410973 -12.239767 -54.781475 0
-8.2646418 -17.685738 -0.63999999 250 250 250 1.0216787 -11.90942 -51.773895 0
-8.212924 -17.774332 -0.63 250 250 250 -1.6003127 -12.671093 -48.793541 0
-8.1612043 -17.851852 -0.64999998 250 250 250 -3.2952673 -12.097624 -45.274055 0
-8.078455 -17.929373 -0.69 250 250 250 0.37633061 -11.656593 -44.704418 0
-7.9957051 -18.006893 -0.72000003 250 250 250 0.57469702 -13.180113 -45.600948 0
-7.9232988 -18.084414 -0.73000002 250 250 250 0.15976474 -13.165847 -48.938656 0
-7.8508925 -18.161934 -0.75 250 250 250 -0.31608772 -12.830208 -50.888729 0
-7.7577987 -18.239454 -0.81 250 250 250 2.7030203 -11.49974 -53.117817 0
-7.6647053 -18.350197 -0.85000002 250 250 250 3.4906907 -10.788479 -51.885651 0
-7.5819554 -18.449867 -0.85000002 250 250 250 3.8209398 -11.885693 -48.73024 0
-7.4992056 -18.527388 -0.85000002 250 250 250 2.5812607 -12.137211 -46.331081 0
-7.4061117 -18.627056 -0.88999999 250 250 250 3.3010373 -10.241439 -46.457592 0
-7.2819867 -18.715651 -0.93000001 250 250 250 3.1085594 -10.74884 -45.048782 0
-7.1682057 -18.804245 -0.93000001 250 250 250 0.62884742 -9.5163012 -47.42939 0
-7.0854559 -18.870691 -0.92000002 250 250 250 -0.36652333 -9.7110462 -48.501854 0
-6.992362 -18.948212 -0.94 250 250 250 -0.57716358 -10.366145 -51.289814 0
-6.8992686 -19.058954 -0.98000002 250 250 250 2.609566 -8.8896379 -52.191505 0
-6.7958312 -19.180773 -0.99000001 250 250 250 2.4945259 -9.4018974 -49.13575 0
-6.6923938 -19.280441 -0.97000003 250 250 250 1.2673665 -10.793729 -46.699337 0
-6.5993004 -19.369036 -0.98000002 250 250 250 -0.31888467 -11.256868 -44.746777 0
-6.4855189 -19.457632 -1.01 250 250 250 1.0628946 -11.123216 -43.198212 0
-6.3613944 -19.546227 -1.03 250 250 250 0.8379972 -11.566449 -42.876865 0
-6.2683005 -19.612673 -1.02 250 250 250 -2.4727442 -10.552822 -46.506275 0
-6.2062383 -19.668043 -1 250 250 250 -3.2209539 -10.405046 -50.261967 0
-6.144176 -19.745564 -1.02 250 250 250 0.12541337 -8.9270153 -52.449577 0
-6.0614262 -19.823084 -1.04 250 250 250 0.73407179 -9.3271027 -51.656048 0
-5.9993634 -19.911678 -1.04 250 250 250 1.8689861 -11.591831 -48.749924 0
-5.9166136 -19.989199 -1.04 250 250 250 1.4120567 -11.37937 -45.751335 0
-5.8442078 -20.066719 -1.0599999 250 250 250 -0.7888388 -10.822745 -44.326763 0
-5.7511139 -20.144239 -1.1 250 250 250 0.20690778 -11.550413 -43.229042 0
-5.668364 -20.210686 -1.11 250 250 250 -0.76802808 -12.80617 -43.643497 0
-5.6166453 -20.288206 -1.11 250 250 250 -1.2507671 -11.809292 -46.064377 0
-5.5649266 -20.376801 -1.13 250 250 250 -0.85035366 -10.4122 -50.060638 0
-5.4925203 -20.476471 -1.17 250 250 250 1.7937979 -11.287668 -50.442474 0
-5.4304581 -20.587214 -1.1900001 250 250 250 3.1454291 -12.595378 -48.520309 0
-5.3580518 -20.697958 -1.1900001 250 250 250 1.2526246 -12.93728 -46.730225 0
-5.285646 -20.797626 -1.21 250 250 250 -1.2795213 -13.253653 -44.893055 0
-5.1925521 -20.897295 -1.28 250 250 250 1.1615996 -12.204362 -45.427353 0
-5.0787711 -20.996964 -1.3200001 250 250 250 0.0080999639 -12.140316 -46.034065 0
-4.9753337 -21.096634 -1.33 250 250 250 -1.8613988 -10.506757 -48.776165 0
-4.8718963 -21.196302 -1.35 250 250 250 -1.0556611 -10.594663 -50.638241 0
-4.7581153 -21.307045 -1.4 250 250 250 1.3797694 -10.707911 -52.100487 0
-4.6236467 -21.439938 -1.45 250 250 250 2.23792 -10.671957 -51.177143 0
-4.4891782 -21.561754 -1.45 250 250 250 2.3216226 -13.09774 -49.254005 0
-4.3650537 -21.661425 -1.45 250 250 250 1.8662899 -11.552663 -46.301533 0
-4.2202411 -21.761093 -1.48 250 250 250 0.98257333 -11.462212 -44.379383 0
-4.0650854 -21.838614 -1.52 250 250 250 1.1530154 -11.785649 -43.025993 0
-3.9202731 -21.916134 -1.53 250 250 250 0.21754238 -11.841468 -44.560108 0
-3.8064921 -21.993654 -1.52 250 250 250 -0.85178798 -12.556636 -47.644554 0
-3.7133985 -22.060101 -1.53 250 250 250 1.0053838 -10.846155 -50.628925 0
-3.5996172 -22.159769 -1.5700001 250 250 250 3.0418615 -10.251426 -50.533573 0
-3.4961801 -22.259438 -1.5700001 250 250 250 3.4846025 -10.674603 -49.619434 0
-3.4030864 -22.348034 -1.55 250 250 250 3.65326 -11.114036 -48.69236 0
-3.3203366 -22.436628 -1.5599999 250 250 250 1.148241 -11.50515 -47.207054 0
-3.2168994 -22.536297 -1.59 250 250 250 2.7632406 -9.5745478 -48.084526 0
-3.113462 -22.613817 -1.62 250 250 250 0.98920244 -9.9430027 -49.608765 0
-3.0100248 -22.691338 -1.61 250 250 250 0.30003059 -9.8275461 -51.760441 0
-2.9169312 -22.768858 -1.62 250 250 250 -0.13905476 -8.7569685 -54.157619 0
-2.8031502 -22.857452 -1.66 250 250 250 1.9036011 -8.3229523 -53.729012 0
-2.6893692 -22.957121 -1.6799999 250 250 250 2.278517 -8.2163343 -51.322884 0
-2.5859318 -23.034641 -1.67 250 250 250 1.6054788 -9.2454243 -45.821209 0
-2.5031819 -23.078939 -1.66 250 250 250 -0.76619887 -8.9383335 -39.150093 0
-2.3997447 -23.123238 -1.6799999 250 250 250 -1.12673 -8.0134945 -34.614124 0
-2.3169949 -23.167534 -1.7 250 250 250 -1.7277619 -10.244619 -27.908846 0
-2.27562 -23.211832 -1.6900001 250 250 250 -2.8040521 -9.9139271 -27.178057 0
-2.3066511 -23.256128 -1.6799999 250 250 250 -3.1652682 -9.8827906 -27.219597 0
-2.3273387 -23.289352 -1.73 250 250 250 -0.73602784 -8.7580709 -27.252533 0
-2.3169949 -23.322575 -1.78 250 250 250 0.82761598 -10.517058 -23.736345 0
-2.2859635 -23.355797 -1.8099999 250 250 250 1.2249013 -11.5786 -18.304226 0
-2.2445886 -23.377947 -1.84 250 250 250 0.26395693 -10.6665 -9.5007753 0
-2.1721826 -23.389021 -1.9 250 250 250 -2.1800954 -11.793832 -2.4985404 0
-2.0894327 -23.377945 -1.97 250 250 250 -0.75954884 -11.476967 3.1940877 0
-1.9963392 -23.355797 -2.01 250 250 250 -0.84632641 -10.981105 5.2001414 0
-1.9135894 -23.344723 -2.04 250 250 250 -2.6671455 -9.6684227 6.8536282 0
-1.8204958 -23.333649 -2.0899999 250 250 250 -2.3358114 -8.1874771 7.1779866 0
-1.6756836 -23.311499 -2.1600001 250 250 250 -1.4384611 -9.2646847 9.9139013 0
-1.5412152 -23.278276 -2.1800001 250 250 250 -0.80803037 -9.8749409 13.548429 0
-1.4274342 -23.245052 -2.1900001 250 250 250 -0.42970279 -11.189678 19.81303 0
-1.323997 -23.200756 -2.2 250 250 250 -2.2091963 -10.892335 22.212477 0
-1.2205597 -23.145384 -2.24 250 250 250 -0.23892215 -10.672794 24.993109 0
-1.1274662 -23.101086 -2.25 250 250 250 0.15717652 -12.011083 26.234842 0
-1.0343727 -23.034639 -2.23 250 250 250 -2.8790727 -10.306925 27.178844 0
-0.95162284 -22.990343 -2.23 250 250 250 -3.3475575 -8.5058155 25.904522 0
-0.84818554 -22.946045 -2.24 250 250 250 -2.323339 -9.0001125 26.387383 0
-0.75509202 -22.901749 -2.23 250 250 250 -0.18594721 -8.9829731 28.818834 0
-0.68268597 -22.868525 -2.1900001 250 250 250 -0.78042489 -11.182804 32.307686 0
-0.61027986 -22.835302 -2.1500001 250 250 250 -1.1084217 -11.016403 35.902039 0
-0.52753007 -22.77993 -2.1400001 250 250 250 -0.90438473 -10.020331 37.389732 0
-0.45512399 -22.70241 -2.1300001 250 250 250 -1.1698515 -12.370237 38.824379 0
-0.37237418 -22.647038 -2.0899999 250 250 250 -1.1890965 -11.515342 36.817253 0
-0.25859317 -22.602741 -2.05 250 250 250 -1.2962238 -11.808558 36.448082 0
-0.13446845 -22.525221 -2.04 250 250 250 1.0506659 -9.7288074 33.754192 0
0.020687455 -22.447701 -2.04 250 250 250 2.2769711 -9.497529 33.734348 0
0.16549964 -22.37018 -2 250 250 250 2.4599059 -10.815041 37.180767 0
0.28962436 -22.29266 -1.95 250 250 250 1.6660677 -9.3521328 41.292843 0
0.38271791 -22.215139 -1.92 250 250 250 -0.25087947 -8.4293709 42.485535 0
0.50684267 -22.104397 -1.92 250 250 250 0.55653214 -9.4178247 43.857582 0
0.62062365 -22.004726 -1.89 250 250 250 0.30681679 -10.811738 43.706291 0
0.71371722 -21.916132 -1.85 250 250 250 -0.23608698 -10.11368 41.735409 0
0.81715453 -21.838612 -1.84 250 250 250 -0.74440634 -8.1764088 38.481236 0
0.9309355 -21.750017 -1.84 250 250 250 2.0236573 -7.5195355 38.07029 0
1.0447165 -21.683571 -1.8 250 250 250 2.7088401 -8.161355 38.908737 0
1.1481538 -21.617125 -1.74 250 250 250 1.6636583 -8.4706364 39.281036 0
1.22056 -21.561754 -1.71 250 250 250 -0.23909056 -9.5074348 41.361504 0
1.292966 -21.484234 -1.71 250 250 250 0.61111516 -9.3008614 41.83894 0
1.3757159 -21.406713 -1.71 250 250 250 0.16661969 -10.19044 42.115219 0
1.448122 -21.329193 -1.67 250 250 250 -1.1875669 -7.687192 40.249386 0
1.5205281 -21.262747 -1.64 250 250 250 -1.7266037 -7.7521248 36.947632 0
1.6136216 -21.196301 -1.65 250 250 250 2.3713703 -7.1100035 35.746426 0
1.7170589 -21.140928 -1.65 250 250 250 3.5726523 -8.5034771 35.181606 0
1.8101525 -21.085558 -1.62 250 250 250 3.0415342 -8.2961941 36.391514 0
1.8929024 -21.008038 -1.58 250 250 250 1.6470478 -8.2371235 41.439873 0
1.9859959 -20.919441 -1.58 250 250 250 -0.16308571 -10.352182 42.834278 0
2.0790894 -20.830847 -1.6 250 250 250 0.10883928 -11.90654 43.837391 0
2.172183 -20.742252 -1.5700001 250 250 250 -1.8337557 -10.440905 39.721279 0
2.2549329 -20.664732 -1.53 250 250 250 -1.6053995 -10.075157 38.346813 0
2.3480265 -20.587212 -1.53 250 250 250 -0.25699034 -9.7877531 37.268284 0
2.4721513 -20.498617 -1.54 250 250 250 1.7375104 -10.806463 36.406593 0
2.596276 -20.398949 -1.51 250 250 250 2.9027755 -11.522163 38.190311 0
2.6997135 -20.310354 -1.46 250 250 250 1.9622709 -11.564249 42.166927 0
2.7928069 -20.210684 -1.46 250 250 250 -0.42421365 -12.476589 44.412117 0
2.8859005 -20.088867 -1.46 250 250 250 0.55070388 -15.083302 47.375095 0
2.9789941 -19.967049 -1.4400001 250 250 250 0.38611913 -14.427885 44.62381 0
3.0824316 -19.878454 -1.4 250 250 250 -0.040453076 -13.792892 40.959408 0
3.2065563 -19.76771 -1.41 250 250 250 1.9579779 -12.750621 38.568916 0
3.3410249 -19.656967 -1.42 250 250 250 3.9608276 -12.253106 35.144028 0
3.4444621 -19.557299 -1.38 250 250 250 4.4982886 -10.059181 36.070717 0
3.5478995 -19.446554 -1.3200001 250 250 250 2.9057696 -10.395399 38.347359 0
3.6409931 -19.335812 -1.29 250 250 250 1.9737614 -10.876976 38.359852 0
3.7547741 -19.225069 -1.29 250 250 250 2.5877502 -13.079509 40.134022 0
3.8478677 -19.136473 -1.26 250 250 250 0.71666574 -13.353857 39.790367 0
3.9409614 -19.058952 -1.21 250 250 250 -0.84789562 -12.472549 37.905319 0
4.0237112 -18.981432 -1.1900001 250 250 250 -0.91327935 -11.957919 35.517021 0
4.1271486 -18.903912 -1.1900001 250 250 250 2.3829889 -12.12614 34.992298 0
4.2409296 -18.826391 -1.16 250 250 250 3.708401 -12.063424 35.815224 0
4.3236794 -18.748873 -1.1 250 250 250 2.3710327 -14.34757 40.156036 0
4.3960857 -18.660276 -1.0599999 250 250 250 0.3347418 -14.311112 43.126122 0
4.4891791 -18.549534 -1.0599999 250 250 250 3.0352349 -13.96443 43.370922 0
4.5719295 -18.438791 -1.04 250 250 250 2.1010406 -15.042333 42.790955 0
4.6753664 -18.339121 -1 250 250 250 0.67341781 -14.885952 40.894005 0
4.7684603 -18.272675 -0.97000003 250 250 250 -0.7064774 -14.508377 36.643093 0
4.8822412 -18.18408 -0.97000003 250 250 250 2.3812435 -14.140949 34.169785 0
4.9856787 -18.095486 -0.97000003 250 250 250 3.2644458 -15.892734 33.989979 0
5.1098037 -17.995817 -0.94 250 250 250 3.2226055 -17.057306 36.23325 0
5.1925535 -17.907223 -0.89999998 250 250 250 2.3077002 -17.613438 40.251995 0
5.2856469 -17.818628 -0.91000003 250 250 250 2.0508933 -18.879213 41.331646 0
5.3890843 -17.69681 -0.93000001 250 250 250 0.98119682 -20.06031 43.839931 0
5.4925218 -17.586065 -0.91000003 250 250 250 -1.0320107 -18.009766 42.551556 0
5.5856152 -17.486397 -0.88999999 250 250 250 -2.3015251 -16.00886 41.282093 0
5.6890526 -17.386728 -0.88999999 250 250 250 -1.1216936 -14.407963 39.094902 0
5.8235211 -17.275984 -0.91000003 250 250 250 1.304871 -13.51379 37.128597 0
5.9476461 -17.165241 -0.88999999 250 250 250 2.2472644 -13.945313 38.468147 0
6.0614271 -17.065573 -0.85000002 250 250 250 2.7699111 -14.316328 39.95837 0
6.1648645 -16.965902 -0.82999998 250 250 250 0.53038448 -15.893634 41.770424 0
6.2786455 -16.844086 -0.85000002 250 250 250 1.5079644 -15.174551 42.499916 0
6.3820829 -16.722267 -0.83999997 250 250 250 0.75179297 -15.928058 42.352928 0
6.4855204 -16.611525 -0.81 250 250 250 -0.076647319 -13.658598 41.043629 0
6.5993018 -16.50078 -0.80000001 250 250 250 -1.1701901 -13.608519 38.817337 0
6.7234263 -16.378963 -0.81999999 250 250 250 2.5894055 -11.361975 35.895248 0
6.8578949 -16.246071 -0.80000001 250 250 250 2.5467203 -12.441389 37.145416 0
6.9613323 -16.124252 -0.75999999 250 250 250 2.0880473 -13.982976 40.671711 0
7.0751138 -15.991361 -0.73000002 250 250 250 0.22222319 -13.967979 43.289852 0
7.1888947 -15.858469 -0.74000001 250 250 250 1.5960851 -13.136332 43.805016 0
7.3026757 -15.703428 -0.73000002 250 250 250 1.3782964 -15.318247 45.413639 0
7.3957696 -15.570536 -0.69999999 250 250 250 -0.21219605 -14.59962 44.701324 0
7.499207 -15.437644 -0.68000001 250 250 250 -2.416003 -14.448017 44.111462 0
7.5923009 -15.293677 -0.69 250 250 250 1.0327873 -12.615571 42.021172 0
7.6853943 -15.149711 -0.69 250 250 250 1.7675523 -13.090244 44.369488 0
7.7681441 -15.005745 -0.66000003 250 250 250 1.622537 -15.333917 49.444904 0
7.8302069 -14.872852 -0.63999999 250 250 250 0.89058775 -14.412725 56.017845 0
7.9026132 -14.728886 -0.64999998 250 250 250 -0.75596899 -13.350818 61.727207 0
7.985363 -14.573845 -0.66000003 250 250 250 -1.4226769 -13.485161 66.654472 0
8.0474253 -14.452027 -0.63999999 250 250 250 -2.0403874 -12.969466 66.276375 0
8.099144 -14.341284 -0.60000002 250 250 250 -2.8840771 -10.898236 65.980736 0
8.1508627 -14.241614 -0.61000001 250 250 250 -2.099349 -10.271503 66.331184 0
8.212925 -14.130871 -0.62 250 250 250 -1.2234656 -11.706984 70.081444 0
8.2853317 -14.009053 -0.61000001 250 250 250 0.53172916 -12.483529 74.706612 0
8.3370504 -13.89831 -0.57999998 250 250 250 -1.7454282 -12.681348 80.320877 0
8.4094563 -13.765418 -0.60000002 250 250 250 -3.2513471 -11.132163 86.282494 0
8.461175 -13.621451 -0.62 250 250 250 -1.6865058 -11.829757 92.727592 0
8.5128937 -13.499634 -0.63 250 250 250 -2.2514632 -12.140108 95.339928 0
8.5646124 -13.399964 -0.62 250 250 250 -2.8720551 -9.8771696 96.240784 0
8.6059875 -13.289221 -0.63999999 250 250 250 -3.8684902 -10.085562 94.495354 0
8.6577063 -13.167403 -0.68000001 250 250 250 -0.63273531 -10.375954 94.974251 0
8.7197685 -13.034511 -0.70999998 250 250 250 0.89113629 -11.598234 98.731384 0
8.7611437 -12.912693 -0.70999998 250 250 250 -0.69031376 -13.927172 103.0296 0
8.7818317 -12.80195 -0.72000003 250 250 250 -2.920408 -12.926494 107.48651 0
8.7921753 -12.669057 -0.75999999 250 250 250 -1.2006066 -11.107588 108.93035 0
8.7921753 -12.52509 -0.80000001 250 250 250 -1.4318858 -13.799951 111.32676 0
8.7921753 -12.381124 -0.80000001 250 250 250 -1.7260014 -11.768612 110.54581 0
8.7921753 -12.259306 -0.81 250 250 250 -3.6006682 -12.42004 110.53773 0
8.7921753 -12.126414 -0.86000001 250 250 250 0.31813166 -10.507711 108.34895 0
8.7921753 -11.982448 -0.89999998 250 250 250 1.6259729 -12.275444 111.24187 0
8.7921753 -11.860629 -0.89999998 250 250 250 1.918074 -12.7723 115.40832 0
8.7714882 -11.760961 -0.88999999 250 250 250 -1.9502395 -12.431999 123.59383 0
8.730113 -11.694514 -0.89999998 250 250 250 -3.2984996 -11.348418 124.70206 0
8.6887379 -11.60592 -0.93000001 250 250 250 -2.6906555 -12.895267 126.25261 0
8.6577072 -11.50625 -0.95999998 250 250 250 -1.8048025 -14.376714 124.59687 0
8.6266756 -11.417655 -0.98000002 250 250 250 -2.7376754 -13.531587 122.96317 0
8.5853004 -11.329061 -1.01 250 250 250 -3.3815775 -13.267907 119.8834 0
8.5439262 -11.229391 -1.0599999 250 250 250 0.0099263992 -11.578343 118.96356 0
8.5128946 -11.129722 -1.08 250 250 250 1.9042982 -13.659879 122.09849 0
8.481864 -11.018978 -1.08 250 250 250 0.087129526 -14.119555 123.87931 0
8.4404888 -10.91931 -1.09 250 250 250 -1.727087 -13.150517 127.76894 0
8.3991137 -10.808566 -1.12 250 250 250 0.29586032 -12.828164 127.95509 0
8.3473949 -10.686748 -1.14 250 250 250 0.17795588 -14.858329 127.88822 0
8.2956762 -10.576004 -1.13 250 250 250 -0.70437801 -13.963304 126.26825 0
8.2439575 -10.465261 -1.13 250 250 250 -1.4099365 -13.452823 123.77866 0
8.1818953 -10.343443 -1.16 250 250 250 2.4279261 -11.715015 119.41193 0
8.119833 -10.199476 -1.17 250 250 250 3.5371978 -12.548655 119.94991 0
8.0681143 -10.05551 -1.16 250 250 250 4.0436254 -13.87704 122.91666 0
7.9957085 -9.933692 -1.14 250 250 250 1.0862641 -13.550508 126.76639 0
7.9129586 -9.8008003 -1.15 250 250 250 0.37219515 -12.867376 126.52842 0
7.8095212 -9.6679077 -1.16 250 250 250 1.8892655 -13.313306 126.98711 0
7.7267714 -9.5460901 -1.15 250 250 250 3.0204184 -13.480564 125.37785 0
7.633678 -9.4353466 -1.13 250 250 250 1.3488423 -13.728909 124.91021 0
7.5509281 -9.3135281 -1.14 250 250 250 1.1585495 -12.207993 121.75932 0
7.4681783 -9.1806364 -1.16 250 250 250 3.7392895 -12.580016 120.82659 0
7.3854284 -9.0477438 -1.14 250 250 250 4.5264344 -13.714085 122.35216 0
7.292335 -8.9259262 -1.11 250 250 250 3.2576783 -13.468409 125.91562 0
7.1888976 -8.8151827 -1.11 250 250 250 -0.36218444 -13.000454 127.56731 0
7.0751166 -8.7044392 -1.11 250 250 250 1.5084451 -12.311283 128.61713 0
6.9613357 -8.5826216 -1.08 250 250 250 1.9473412 -13.776264 127.67636 0
6.8475542 -8.4829521 -1.0599999 250 250 250 0.95299816 -12.475004 126.20216 0
6.7544608 -8.3722086 -1.05 250 250 250 0.93916214 -12.522621 124.42754 0
6.6613674 -8.250391 -1.0599999 250 250 250 3.1350386 -12.869322 122.90199 0
6.5786176 -8.1285725 -1.05 250 250 250 5.1136174 -13.095095 124.41869 0
6.4958677 -8.0178289 -1.01 250 250 250 3.1190867 -13.529291 127.86465 0
6.4027739 -7.8960114 -0.99000001 250 250 250 0.64241219 -13.155939 129.39211 0
6.2993364 -7.7741938 -1 250 250 250 2.073776 -11.789697 129.10826 0
0 0 0 1 0 0 0 1 0 0 0 1 0 0 0 0 0 525 1 0 0
