ply
format ascii 1.0
comment PCL generated
element vertex 48
property float x
property float y
property float z
property uchar red
property uchar green
property uchar blue
property float nx
property float ny
property float nz
property float curvature
element camera 1
property float view_px
property float view_py
property float view_pz
property float x_axisx
property float x_axisy
property float x_axisz
property float y_axisx
property float y_axisy
property float y_axisz
property float z_axisx
property float z_axisy
property float z_axisz
property float focal
property float scalex
property float scaley
property float centerx
property float centery
property int viewportx
property int viewporty
property float k1
property float k2
end_header
-9.8265333 21.860699 0.16 250 250 250 1.9040689 -1.8202766 111.02566 0
-10.467845 23.543995 0.17 250 250 250 -1.5566314 -1.5722145 111.91339 0
-11.150532 25.30481 0.17 250 250 250 -1.2801292 1.3123425 110.79906 0
-11.822874 27.043478 0.15000001 250 250 250 -2.0677016 2.364923 111.21693 0
-12.567624 29.158672 0.11 250 250 250 -2.4946897 4.2988629 111.4366 0
-12.929655 30.398994 0.079999998 250 250 250 -3.0580993 4.6513581 111.80636 0
-13.312374 31.761135 0.059999999 250 250 250 -2.3443723 2.9431291 111.93623 0
-13.68475 33.045753 0.029999999 250 250 250 -2.9280331 2.1443024 113.9246 0
-14.036437 34.352524 0 250 250 250 -2.6178837 0.73753726 114.73103 0
-14.408813 35.64822 -0.029999999 250 250 250 -3.3934333 1.0385629 115.69553 0
-14.770844 36.932838 -0.07 250 250 250 -3.2879875 0.86921436 115.63225 0
-15.112188 38.128864 -0.1 250 250 250 -2.6687119 1.2970579 114.91328 0
-15.401814 39.291668 -0.13 250 250 250 -3.2042162 2.5514843 115.1311 0
-15.72247 40.731327 -0.18000001 250 250 250 -3.3851697 2.0656557 115.53379 0
-16.229315 42.148838 -0.25 250 250 250 -3.0129101 1.7026836 114.25937 0
-16.549971 43.411312 -0.28 250 250 250 -2.0486565 1.8866726 113.79702 0
-16.849941 44.795601 -0.28999999 250 250 250 -2.2448814 2.1651671 113.33992 0
-17.170599 46.058071 -0.30000001 250 250 250 -2.6482844 1.1794556 112.95191 0
-17.480911 47.575253 -0.28 250 250 250 -1.297711 2.7641594 111.49472 0
-17.729162 48.981689 -0.23 250 250 250 -2.9289758 4.494339 111.71616 0
-17.987759 50.410278 -0.18000001 250 250 250 -0.99648726 1.4397751 112.51321 0
-18.339447 51.905312 -0.13 250 250 250 -1.3047551 2.77565 109.17307 0
-18.567011 53.389271 -0.050000001 250 250 250 -1.2196338 1.0002304 110.61665 0
-18.846294 55.061489 0.0099999998 250 250 250 -1.1692202 1.0837654 109.46143 0
-19.280733 56.733711 0.050000001 250 250 250 -1.6232015 1.8571159 109.33742 0
-19.684141 58.250893 0.079999998 250 250 250 -1.9604592 2.3904042 109.66992 0
-19.994455 59.657333 0.13 250 250 250 -1.2035171 2.2235913 109.97675 0
-20.294426 61.506744 0.20999999 250 250 250 -0.41333297 1.2677755 109.4323 0
-20.490961 62.968552 0.28999999 250 250 250 -0.018650899 0.17333633 109.36762 0
-20.656462 64.441437 0.37 250 250 250 -0.45334783 2.0551879 110.16266 0
-20.86334 66.03614 0.44999999 250 250 250 -0.37825504 0.66478616 109.55405 0
-21.059874 67.652992 0.52999997 250 250 250 -0.43748516 1.9800798 111.26686 0
-21.287437 69.269844 0.61000001 250 250 250 -0.6009019 2.695183 111.27512 0
-21.483971 70.731651 0.67000002 250 250 250 -0.71254945 2.2913544 110.30795 0
-21.649473 72.237762 0.73000002 250 250 250 0.74369895 1.037485 108.66938 0
-21.866695 73.909981 0.80000001 250 250 250 0.69654268 1.820328 108.84654 0
-22.156322 75.427162 0.82999998 250 250 250 1.1307764 0.74003476 108.91376 0
-22.47698 76.933273 0.85000002 250 250 250 2.0759385 2.86779 109.74677 0
-22.79764 78.417229 0.87 250 250 250 -1.4656068 -0.65704113 109.79554 0
-23.107954 79.912262 0.87 250 250 250 1.0940303 -4.0807166 110.95575 0
-23.438957 81.57341 0.86000001 250 250 250 -0.2993958 0.6437797 108.41547 0
-24.059587 85.006447 0.88999999 250 250 250 1.1736596 1.4622324 107.98875 0
-24.287153 86.656517 0.92000002 250 250 250 0.87908524 1.8194934 108.12075 0
-24.514719 88.395187 0.97000003 250 250 250 1.3630612 0.40258524 109.87585 0
-24.804348 90.277824 0.99000001 250 250 250 2.9736283 0.060849514 108.1542 0
-25.083632 91.850372 1.01 250 250 250 3.5180011 -4.1110926 107.10472 0
-25.838732 95.405228 1.03 250 250 250 0.56873596 2.8486233 111.99082 0
-27.524778 101.68436 1.1 250 250 250 0.039832383 2.2997127 112.73972 0
0 0 0 1 0 0 0 1 0 0 0 1 0 0 0 0 0 48 1 0 0
