ply
format ascii 1.0
comment PCL generated
element vertex 614
property float x
property float y
property float z
property uchar red
property uchar green
property uchar blue
property float nx
property float ny
property float nz
property float curvature
element camera 0
property float view_px
property float view_py
property float view_pz
property float x_axisx
property float x_axisy
property float x_axisz
property float y_axisx
property float y_axisy
property float y_axisz
property float z_axisx
property float z_axisy
property float z_axisz
property float focal
property float scalex
property float scaley
property float centerx
property float centery
property int viewportx
property int viewporty
property float k1
property float k2
end_header
2.2785723 0.33647355 -0.16975066 250 250 250 2.5337925 -5.5223484 -2.2816548 0
2.3087008 0.33492684 -0.16399951 250 250 250 3.4948349 -4.7405915 -0.61145633 0
2.3286903 0.3475309 -0.16906607 250 250 250 2.8557291 -4.4974012 -0.0059215021 0
2.3464987 0.36105183 -0.17749374 250 250 250 2.1843648 -4.4922404 -1.8421212 0
2.3796351 0.35817462 -0.17630932 250 250 250 2.6133084 -4.1080542 -2.932313 0
2.4133637 0.35543764 -0.17292556 250 250 250 3.3867354 -3.641588 -1.9121794 0
2.4360514 0.3596358 -0.18070757 250 250 250 3.108418 -3.6539145 -0.61599481 0
2.4572656 0.36677101 -0.18988609 250 250 250 2.4508789 -3.3809769 -0.39650321 0
2.4842448 0.37130058 -0.19891286 250 250 250 1.5394745 -3.0356882 -0.54913801 0
2.5103991 0.37641871 -0.20708765 250 250 250 0.92980981 -2.6635346 -0.46967635 0
2.5361047 0.38307646 -0.21442473 250 250 250 1.0867472 -2.5397084 -0.090402588 0
2.5624855 0.38954613 -0.2216249 250 250 250 1.6929773 -2.619529 0.68638301 0
2.5917349 0.39482987 -0.23042047 250 250 250 1.9367629 -2.8276906 1.3471874 0
2.6209385 0.39994827 -0.23860733 250 250 250 1.5818237 -2.9998083 1.6966739 0
2.6507313 0.40476775 -0.24625915 250 250 250 0.59978926 -3.1947029 2.1021726 0
2.681798 0.40916437 -0.25019893 250 250 250 -0.21699795 -3.547879 2.6387901 0
2.6984389 0.4209789 -0.25290856 250 250 250 -0.71552747 -4.0869551 4.1242919 0
2.7206032 0.43124506 -0.25490826 250 250 250 -1.3662281 -4.0408525 5.8959427 0
2.7665563 0.42295119 -0.25786993 250 250 250 -1.9001979 -3.9502935 6.4302826 0
2.7927055 0.42545846 -0.25551331 250 250 250 -1.414722 -4.3137836 6.6001849 0
2.7991261 0.44570869 -0.25489438 250 250 250 -0.71736318 -4.3748627 7.8327203 0
2.8259482 0.45034647 -0.25593933 250 250 250 -0.64955032 -3.9952066 9.3508072 0
2.8655977 0.44710159 -0.25825885 250 250 250 -0.99319077 -4.147439 10.02999 0
2.8872278 0.45543098 -0.25472197 250 250 250 -0.49659723 -4.7000561 10.418629 0
2.904851 0.46685314 -0.25352335 250 250 250 0.06761948 -4.996244 11.360126 0
2.9311492 0.47483262 -0.25662073 250 250 250 0.004826345 -5.2235436 12.065131 0
2.9576018 0.48272976 -0.25965357 250 250 250 -0.21641552 -5.5313935 12.352269 0
2.9827185 0.4914341 -0.26229739 250 250 250 -0.26435018 -5.9157839 12.832911 0
3.0094776 0.50078529 -0.26532704 250 250 250 -0.18960796 -6.3248892 13.237403 0
3.0367746 0.51051694 -0.26826701 250 250 250 0.20175038 -6.6726379 13.297097 0
3.0640085 0.52118677 -0.27090231 250 250 250 0.95503908 -7.0405807 13.371803 0
3.0926509 0.53228062 -0.2732076 250 250 250 1.5572585 -7.5234551 13.578279 0
3.1210821 0.54446888 -0.27546856 250 250 250 1.8803104 -7.9542141 13.520573 0
3.1495628 0.55678076 -0.27758193 250 250 250 1.8699929 -8.1693373 13.330243 0
3.1802945 0.5681842 -0.2792708 250 250 250 1.5037014 -8.3534346 12.907424 0
3.2003825 0.58642006 -0.27909231 250 250 250 0.96686035 -8.3831263 12.444177 0
3.2216623 0.60084546 -0.27421173 250 250 250 -0.33747244 -7.3695111 12.82714 0
3.2595294 0.60345024 -0.27790216 250 250 250 -1.8939364 -5.9823399 12.568049 0
3.2987511 0.60680085 -0.28231841 250 250 250 -1.7229971 -5.8887806 11.342854 0
3.311516 0.62880719 -0.27618396 250 250 250 0.56059301 -5.9246926 10.883831 0
3.3311012 0.64541531 -0.27254835 250 250 250 2.3573725 -5.8305783 11.920325 0
3.3609264 0.65306491 -0.27297643 250 250 250 2.4248602 -6.0025821 12.30797 0
3.3939748 0.65648037 -0.27243245 250 250 250 1.9771695 -5.9739347 11.192306 0
3.4145465 0.66772628 -0.2711426 250 250 250 1.8508953 -5.6016884 10.160933 0
3.4363205 0.68096513 -0.2717897 250 250 250 2.0142064 -5.3862195 10.133796 0
3.4600987 0.6912719 -0.27289721 250 250 250 2.3005276 -5.2520895 10.381968 0
3.4847054 0.70047456 -0.27672604 250 250 250 2.2442501 -5.111001 10.246322 0
3.5094774 0.70901585 -0.280287 250 250 250 2.1620736 -4.9903202 9.8791704 0
3.5327246 0.72195441 -0.28393486 250 250 250 2.196157 -4.8605351 9.9974041 0
3.5599082 0.72837955 -0.288481 250 250 250 2.1501555 -4.8949885 10.5384 0
3.5868218 0.73522252 -0.29297996 250 250 250 2.1504388 -4.9822831 10.53511 0
3.6135802 0.74324429 -0.29776189 250 250 250 2.3141668 -4.9822831 10.53511 0
3.6420314 0.74994123 -0.30230105 250 250 250 2.3439147 -4.9448009 10.587307 0
3.6723256 0.75681382 -0.30654508 250 250 250 2.6434824 -5.0712557 10.356457 0
3.7070589 0.76127654 -0.30830652 250 250 250 3.345432 -5.5892792 10.45026 0
3.727077 0.77691138 -0.31319323 250 250 250 3.6000261 -6.2314258 11.024559 0
3.7517922 0.78655452 -0.31736398 250 250 250 2.5811596 -6.11131 11.657587 0
3.7866695 0.78169107 -0.31676555 250 250 250 1.4438008 -6.1030612 11.42149 0
3.8154428 0.78820127 -0.31445485 250 250 250 1.1642656 -6.6333871 11.344826 0
3.842737 0.79630601 -0.31272256 250 250 250 1.5708573 -7.1345687 11.92923 0
3.8697414 0.80309349 -0.31239656 250 250 250 1.6064605 -7.6298022 12.673427 0
3.8919568 0.81192511 -0.31201947 250 250 250 1.017942 -7.6929336 13.319243 0
3.914917 0.82048762 -0.31114486 250 250 250 0.20089287 -7.1407595 13.904245 0
3.9393713 0.82900363 -0.31040651 250 250 250 -0.2150688 -6.8627152 14.16975 0
3.9625895 0.83989471 -0.31039542 250 250 250 0.12012888 -6.9882798 14.571141 0
3.9861145 0.85083759 -0.3116132 250 250 250 0.56924355 -7.29743 15.394091 0
4.0091448 0.86151314 -0.31255466 250 250 250 0.50840056 -7.5461297 15.865108 0
4.0327506 0.87265539 -0.31539899 250 250 250 0.025584618 -7.6396594 16.025572 0
4.0587564 0.88201934 -0.31570789 250 250 250 -0.48759663 -7.7349849 16.169212 0
4.0850449 0.89176458 -0.31618249 250 250 250 -0.37623286 -8.0504084 16.026215 0
4.1080356 0.90980017 -0.32369649 250 250 250 0.16115195 -8.3935585 15.906108 0
4.134131 0.92287081 -0.32962218 250 250 250 0.13955908 -8.5515785 16.052664 0
4.1607728 0.93615091 -0.33464375 250 250 250 -0.1503032 -8.7257576 15.770768 0
4.1867843 0.95219594 -0.33918008 250 250 250 -0.20064719 -8.8284149 15.499564 0
4.2140999 0.96680766 -0.34150147 250 250 250 -0.058478843 -8.9382372 15.244576 0
4.2410011 0.98304987 -0.34514621 250 250 250 0.18099207 -9.087594 14.626569 0
4.262392 1.0124128 -0.35860756 250 250 250 0.07804022 -8.8901243 14.563685 0
4.2884636 1.020117 -0.3547107 250 250 250 -0.97306943 -7.4133139 15.237084 0
4.317781 1.0215863 -0.34717634 250 250 250 -1.6610391 -6.3499489 14.438596 0
4.3440647 1.0387591 -0.34206226 250 250 250 -0.54631138 -6.139678 12.742316 0
4.3677578 1.0649981 -0.33776638 250 250 250 1.42198 -6.448801 12.052637 0
4.3920507 1.086071 -0.3444353 250 250 250 2.4220412 -6.9799738 12.848423 0
4.4207726 1.089434 -0.34766042 250 250 250 1.96074 -6.5802178 13.268981 0
4.4505248 1.0880827 -0.34665155 250 250 250 1.3755087 -6.0180459 12.117965 0
4.4718518 1.1091415 -0.34671113 250 250 250 1.4663515 -5.8702822 11.105704 0
4.4939113 1.1287119 -0.34718242 250 250 250 1.9742192 -5.7293043 11.453656 0
4.5206571 1.1350743 -0.3479673 250 250 250 2.3332539 -5.739265 11.719841 0
4.5452819 1.1439928 -0.35275009 250 250 250 2.3325658 -5.6872182 11.528034 0
4.5700579 1.1530913 -0.35778528 250 250 250 1.8710214 -5.4697585 11.536053 0
4.5952334 1.1616017 -0.36217001 250 250 250 1.3908648 -5.2638435 11.510512 0
4.620677 1.1716624 -0.36683878 250 250 250 1.4189177 -5.1720271 11.419572 0
4.6463122 1.1818136 -0.37113547 250 250 250 1.9013336 -5.3592162 11.56483 0
4.6723204 1.1907676 -0.37677059 250 250 250 2.0384047 -5.6690259 11.817192 0
4.70084 1.1976308 -0.38279784 250 250 250 1.6576996 -5.7356248 11.800968 0
4.7303219 1.2044709 -0.38463819 250 250 250 1.2143954 -5.8586879 11.623898 0
4.7565951 1.2196441 -0.38351184 250 250 250 0.8677398 -6.6051717 11.724587 0
4.7762532 1.2447671 -0.39771751 250 250 250 0.37277934 -7.2540369 13.203238 0
4.8089609 1.2291564 -0.40592676 250 250 250 -0.58683139 -6.2726407 15.177088 0
4.8437567 1.2158471 -0.39568007 250 250 250 -1.1156503 -5.7161441 14.778439 0
4.8672805 1.2403785 -0.39079493 250 250 250 -0.27618396 -6.5874834 13.755693 0
4.8802509 1.2697738 -0.39186212 250 250 250 0.98988587 -7.119041 14.918891 0
4.9082475 1.2656122 -0.39178267 250 250 250 0.85163462 -7.1332417 17.328768 0
4.940589 1.2518566 -0.39189735 250 250 250 -0.064208627 -6.8666377 18.116331 0
4.9627228 1.2619286 -0.38862237 250 250 250 -0.51434088 -6.8696542 17.514605 0
4.9811091 1.2798412 -0.38972279 250 250 250 -0.052433584 -7.1909785 17.473923 0
5.003264 1.2870052 -0.39074868 250 250 250 0.54851717 -7.3849254 18.092457 0
5.0271454 1.2918671 -0.39027822 250 250 250 0.43996704 -7.7465191 18.478851 0
5.0490999 1.3013785 -0.39353883 250 250 250 -0.47734728 -8.1170416 18.794149 0
5.0721292 1.3104992 -0.39880276 250 250 250 -1.4627061 -8.1361704 19.098564 0
5.0951476 1.3208458 -0.40498579 250 250 250 -1.5139104 -7.9414258 18.995546 0
5.1164098 1.3372488 -0.40672719 250 250 250 -0.39766347 -7.8839927 18.980455 0
5.1396093 1.3492583 -0.40818089 250 250 250 0.66711938 -8.1835699 19.493195 0
5.1661839 1.3533657 -0.41258746 250 250 250 0.80143285 -8.4865847 19.574102 0
5.1906829 1.3630577 -0.41716281 250 250 250 0.23523219 -8.4822416 19.088705 0
5.2153511 1.3733102 -0.42155436 250 250 250 -0.29186985 -8.3324299 18.686939 0
5.2441964 1.3822274 -0.42501894 250 250 250 -0.21649331 -8.3351364 18.070377 0
5.2721457 1.3945101 -0.42767513 250 250 250 0.5432514 -8.6299143 17.138655 0
5.2940569 1.4153818 -0.4304975 250 250 250 1.2147373 -8.5661869 16.850368 0
5.3238821 1.4209006 -0.43327707 250 250 250 0.97123015 -7.7753959 17.354216 0
5.3582039 1.4215299 -0.4333812 250 250 250 0.51329398 -6.9643235 16.861324 0
5.3874955 1.4342613 -0.43329075 250 250 250 0.66785753 -6.7173657 15.563747 0
5.4094768 1.4553529 -0.43329319 250 250 250 1.4170551 -6.418117 15.021256 0
5.4340611 1.4689379 -0.43308267 250 250 250 2.2473965 -6.099124 15.625864 0
5.4667664 1.466555 -0.43484464 250 250 250 2.8422375 -5.8674412 16.121475 0
5.4979262 1.4670994 -0.43634227 250 250 250 3.4986386 -5.9430561 15.135781 0
5.5191054 1.4839261 -0.43561834 250 250 250 3.9987676 -5.8304582 14.268543 0
5.5417233 1.498083 -0.4346422 250 250 250 3.6788449 -5.450808 14.80072 0
5.567421 1.5086863 -0.43722093 250 250 250 3.0748568 -5.3533292 15.404318 0
5.5918331 1.5223736 -0.44051352 250 250 250 3.1179283 -5.4160495 15.78856 0
5.6163044 1.5363317 -0.44393957 250 250 250 3.5589452 -5.421504 16.682755 0
5.6420212 1.5482463 -0.44797933 250 250 250 3.9377761 -5.5646868 17.51878 0
5.6671896 1.5613631 -0.45128933 250 250 250 4.8176794 -5.8904638 18.089081 0
5.6911607 1.5760118 -0.4522385 250 250 250 6.0148783 -6.5460439 19.068186 0
5.7186751 1.586369 -0.45267951 250 250 250 6.678184 -7.3992333 20.205969 0
5.7474489 1.5966648 -0.45219633 250 250 250 6.6952915 -8.3366346 20.685541 0
5.7620525 1.6144089 -0.45041907 250 250 250 6.2457542 -8.8575745 21.703188 0
5.7913523 1.6251616 -0.45218557 250 250 250 5.24015 -8.8073854 23.721077 0
5.8201175 1.6348995 -0.44885555 250 250 250 4.9519305 -8.9542799 24.59128 0
5.845201 1.6472569 -0.44456866 250 250 250 5.5708084 -9.9739532 25.396341 0
5.8649006 1.6587584 -0.43962926 250 250 250 6.3677306 -11.027383 26.907864 0
5.8852401 1.670813 -0.43420604 250 250 250 5.8495016 -11.641204 28.843416 0
5.9100866 1.6778679 -0.43176019 250 250 250 4.4009929 -11.750792 30.54335 0
5.940753 1.6835835 -0.43175009 250 250 250 3.4269915 -12.097269 31.178312 0
5.9649758 1.6916735 -0.43100905 250 250 250 4.0662651 -12.790951 30.897665 0
5.9823747 1.7054721 -0.42998976 250 250 250 5.6314993 -13.205554 30.717491 0
5.9969296 1.7189171 -0.42654321 250 250 250 6.707356 -13.316485 31.540207 0
6.0245633 1.7276433 -0.42924497 250 250 250 6.8753986 -13.668414 32.580254 0
6.0505934 1.7386857 -0.43295386 250 250 250 7.3793583 -13.775427 32.794544 0
6.0733199 1.7519627 -0.43699896 250 250 250 7.8298025 -13.572465 33.232979 0
6.104013 1.7628583 -0.4407326 250 250 250 7.8859887 -13.285542 33.526398 0
6.1326857 1.7750343 -0.44213468 250 250 250 7.9110017 -13.230464 33.118523 0
6.1527843 1.7914315 -0.43857872 250 250 250 7.9307232 -13.474282 32.85141 0
6.1761737 1.8073063 -0.43604967 250 250 250 7.6436186 -14.123489 32.996204 0
6.2046461 1.8231088 -0.43437684 250 250 250 7.2732391 -14.916725 32.943462 0
6.2336578 1.8384575 -0.42870158 250 250 250 7.6122217 -15.830766 32.136826 0
6.2533298 1.8565779 -0.42883512 250 250 250 8.3226128 -16.739212 31.263334 0
6.2788696 1.8711638 -0.43891564 250 250 250 8.0917578 -16.61441 31.139084 0
6.3076468 1.8843464 -0.42888656 250 250 250 7.4232774 -15.554058 30.708176 0
6.3372197 1.8970463 -0.41837671 250 250 250 7.4718533 -15.521931 29.622374 0
6.3501072 1.921333 -0.40322953 250 250 250 8.8989429 -15.794392 28.543743 0
6.3623714 1.940823 -0.39507878 250 250 250 10.006029 -15.946971 29.49649 0
6.3924675 1.9507577 -0.39354342 250 250 250 9.5967274 -16.326757 30.794735 0
6.4302063 1.9614776 -0.3978509 250 250 250 9.0523872 -16.836823 30.428282 0
6.4381704 1.9765213 -0.39645147 250 250 250 9.124898 -16.694578 29.630419 0
6.4466724 1.9939631 -0.39820316 250 250 250 9.6268711 -16.064959 30.113785 0
6.4644117 2.0095699 -0.39880449 250 250 250 10.848656 -15.21087 31.195797 0
6.4803357 2.0256388 -0.39554119 250 250 250 12.532642 -14.639653 32.247597 0
6.4972 2.0414472 -0.39396894 250 250 250 13.664075 -14.700729 33.751228 0
6.5206223 2.0554349 -0.40283638 250 250 250 13.844631 -15.007517 35.153248 0
6.5433598 2.0700741 -0.41143283 250 250 250 13.549678 -15.015566 36.001148 0
6.5638976 2.0857921 -0.41606912 250 250 250 12.97225 -14.958066 36.764542 0
6.5846891 2.1016443 -0.42151803 250 250 250 12.149828 -15.037518 37.754791 0
6.6068449 2.117254 -0.42635384 250 250 250 11.26775 -15.050973 38.610386 0
6.6188436 2.1334763 -0.41919723 250 250 250 10.590562 -15.135083 39.538742 0
6.6383824 2.1493382 -0.43061769 250 250 250 9.2685089 -15.466941 41.850613 0
6.6627889 2.1617613 -0.44233963 250 250 250 8.2276707 -15.040089 43.336006 0
6.6772594 2.17503 -0.43480706 250 250 250 7.9880466 -14.29972 44.465347 0
6.6943483 2.1865036 -0.4278371 250 250 250 7.0462022 -14.298245 46.430889 0
6.718399 2.1946759 -0.42621213 250 250 250 5.9408073 -14.820438 47.66391 0
6.7345867 2.2072458 -0.42422292 250 250 250 5.473372 -15.195812 48.234795 0
6.7494426 2.2191188 -0.42251402 250 250 250 5.0279684 -15.170034 49.679211 0
6.7690787 2.2290256 -0.42064178 250 250 250 4.3561254 -15.255879 50.763088 0
6.7851911 2.2407806 -0.41681576 250 250 250 4.1602211 -15.757854 51.100815 0
6.8002248 2.2545426 -0.41655716 250 250 250 3.8855224 -16.244715 51.963047 0
6.815556 2.2687552 -0.41806862 250 250 250 3.5369275 -16.34133 53.064526 0
6.830586 2.2830982 -0.4195486 250 250 250 2.9616075 -16.289831 54.060829 0
6.8483582 2.296948 -0.42137697 250 250 250 2.1367767 -16.367952 54.663025 0
6.8637276 2.3123651 -0.42316455 250 250 250 1.9550618 -16.450901 54.772964 0
6.877564 2.3289897 -0.42428675 250 250 250 2.1952324 -16.410309 55.3606 0
6.8923035 2.3457382 -0.42530707 250 250 250 2.4038501 -16.414085 56.185501 0
6.9073763 2.3636153 -0.42570835 250 250 250 2.4184954 -16.546532 56.691746 0
6.9228039 2.3823247 -0.42450082 250 250 250 2.2716515 -16.892677 57.153545 0
6.9389253 2.4015431 -0.4234457 250 250 250 2.0101006 -17.535101 57.390961 0
6.9553289 2.4210334 -0.42227694 250 250 250 1.921821 -18.223019 57.198463 0
6.9720654 2.4407873 -0.41979733 250 250 250 2.1477392 -18.865343 56.736931 0
6.9855046 2.4620688 -0.41680709 250 250 250 2.7633595 -19.075459 56.843979 0
6.999114 2.4830408 -0.41438067 250 250 250 2.6097949 -18.457851 57.86784 0
7.0218482 2.502286 -0.40995467 250 250 250 2.4720752 -18.112755 58.097668 0
7.0341434 2.5208287 -0.39929149 250 250 250 3.4703612 -18.566401 57.47308 0
7.0393548 2.5367272 -0.39212447 250 250 250 4.3755689 -18.824724 58.162102 0
7.0605812 2.5557396 -0.38722703 250 250 250 4.122417 -18.668753 59.275482 0
7.0793314 2.5737309 -0.38270119 250 250 250 3.32336 -18.48251 59.139648 0
7.0906901 2.5900505 -0.37630051 250 250 250 3.6498408 -18.646809 58.867542 0
7.1004882 2.6063237 -0.37209216 250 250 250 4.5479283 -18.802689 59.398815 0
7.1116037 2.6235094 -0.37074101 250 250 250 5.0798078 -18.604546 60.30912 0
7.1242929 2.6414094 -0.36918068 250 250 250 4.874424 -18.296061 60.958069 0
7.1356673 2.6588056 -0.36710948 250 250 250 4.5039873 -18.062668 61.605492 0
7.1472421 2.676754 -0.36687055 250 250 250 4.0650644 -18.110626 62.278912 0
7.1586161 2.6948495 -0.36680287 250 250 250 4.1508069 -18.218315 62.809052 0
7.170928 2.7140906 -0.36533704 250 250 250 4.5432301 -18.498684 63.559742 0
7.1833482 2.7337596 -0.36447722 250 250 250 4.4446807 -18.896669 64.449318 0
7.1961927 2.7536335 -0.36491007 250 250 250 4.0453067 -19.076315 65.166298 0
7.2095413 2.7739158 -0.36468536 250 250 250 3.8618605 -19.11573 65.769791 0
7.2226958 2.7940621 -0.36316019 250 250 250 3.6686809 -19.404865 66.587692 0
7.2335205 2.8132105 -0.36188006 250 250 250 3.0797691 -19.67452 68.038208 0
7.2479978 2.8329349 -0.36545289 250 250 250 1.233572 -19.108637 69.790154 0
7.2630682 2.8514738 -0.36780894 250 250 250 -0.17503616 -18.305319 70.253922 0
7.2734423 2.8684261 -0.36205846 250 250 250 -0.47379783 -17.81551 70.478943 0
7.2839422 2.8851097 -0.35374266 250 250 250 -0.96971762 -17.879038 71.780769 0
7.2956395 2.9020956 -0.34851667 250 250 250 -2.1379576 -18.239075 73.052574 0
7.3020039 2.919735 -0.34334257 250 250 250 -3.0849435 -18.427412 74.095291 0
7.3074412 2.9363787 -0.34036836 250 250 250 -3.7777619 -18.226582 75.732262 0
7.3146653 2.9533827 -0.33730209 250 250 250 -4.0351124 -17.85531 77.07222 0
7.3220387 2.972698 -0.33303067 250 250 250 -4.089438 -18.23233 77.818855 0
7.3304973 2.9900556 -0.32318318 250 250 250 -3.9195976 -19.031271 78.453102 0
7.335907 3.0100846 -0.32091942 250 250 250 -3.6806648 -20.046312 78.875717 0
7.3373742 3.031158 -0.32033256 250 250 250 -3.8372493 -20.352846 79.754089 0
7.3420525 3.0534501 -0.32127938 250 250 250 -4.5549059 -20.284382 80.953003 0
7.3480334 3.0765548 -0.32071498 250 250 250 -4.938416 -20.331297 81.386002 0
7.353291 3.1010499 -0.31858617 250 250 250 -4.7092967 -20.844671 81.35582 0
7.3583722 3.1260223 -0.31646141 250 250 250 -4.5753441 -21.448378 81.592674 0
7.3640213 3.1512346 -0.3149206 250 250 250 -4.5035954 -21.991816 81.464264 0
7.3714333 3.1781023 -0.31012973 250 250 250 -4.1575155 -22.71624 80.554352 0
7.3759189 3.2086174 -0.30398172 250 250 250 -2.9624364 -24.051954 79.119423 0
7.3727083 3.236867 -0.29590952 250 250 250 -1.3752456 -25.022526 79.578148 0
7.3697314 3.2569952 -0.29711831 250 250 250 -1.891663 -24.799086 81.633698 0
7.3754721 3.2707796 -0.2955544 250 250 250 -2.6877384 -23.666958 81.391693 0
7.381392 3.2991276 -0.28585306 250 250 250 -1.8313979 -23.39535 79.115952 0
7.3781242 3.3203883 -0.26938286 250 250 250 0.64962739 -23.426296 78.406349 0
7.3755145 3.3430302 -0.25746536 250 250 250 2.1472933 -23.121853 80.166641 0
7.3781238 3.3609784 -0.25360641 250 250 250 1.6079999 -22.093714 82.23037 0
7.3841553 3.3838513 -0.25275195 250 250 250 0.2158446 -20.518023 81.737328 0
7.3864183 3.4065225 -0.24819474 250 250 250 -0.18569753 -19.128222 80.418922 0
7.3801003 3.42909 -0.24316904 250 250 250 0.30927828 -18.099468 80.456245 0
7.3821702 3.4549296 -0.23758493 250 250 250 0.82185268 -17.15608 82.284882 0
7.3833346 3.4800775 -0.23340429 250 250 250 0.73398471 -16.669703 83.298485 0
7.3834367 3.5054708 -0.22921756 250 250 250 0.61631 -16.404053 83.859337 0
7.3826399 3.5310028 -0.22556631 250 250 250 0.44534943 -16.280542 84.811348 0
7.3822465 3.5571353 -0.22189192 250 250 250 0.3407214 -16.236473 85.778336 0
7.3817062 3.5834823 -0.21773909 250 250 250 0.17497259 -16.374176 86.764153 0
7.3812227 3.6097224 -0.21381368 250 250 250 0.06355726 -16.778358 87.715866 0
7.3823867 3.6362331 -0.20913273 250 250 250 0.55243152 -17.325279 88.365181 0
7.3834763 3.6618311 -0.20126128 250 250 250 1.3771441 -18.294252 88.743698 0
7.384016 3.6853864 -0.19327007 250 250 250 1.3643521 -19.215885 89.750465 0
7.3885951 3.710216 -0.19105272 250 250 250 0.023946775 -19.447966 90.702309 0
7.3930464 3.7328572 -0.18209486 250 250 250 -1.2892945 -19.071356 90.522568 0
7.3982911 3.7566714 -0.16514716 250 250 250 -2.0988898 -19.397097 90.263527 0
7.3987908 3.7790091 -0.14929007 250 250 250 -2.2298679 -20.837505 90.321495 0
7.3865738 3.7956128 -0.14417419 250 250 250 -2.3650985 -22.332327 91.170029 0
7.3769073 3.8062451 -0.15153801 250 250 250 -2.3697183 -22.724419 92.709427 0
7.3746696 3.8150344 -0.15441383 250 250 250 -1.6488141 -22.261444 93.647705 0
7.3708863 3.8471777 -0.14254415 250 250 250 -0.50370604 -21.897324 94.263931 0
7.3745356 3.8821621 -0.1285606 250 250 250 -0.53978723 -22.452129 95.780037 0
7.3872504 3.9076872 -0.12074734 250 250 250 -1.388127 -23.47505 96.659599 0
7.392633 3.9274292 -0.12275571 250 250 250 -2.2289021 -24.203768 96.151421 0
7.3851361 3.9434001 -0.12793174 250 250 250 -3.008729 -24.029104 95.204163 0
7.3785491 3.963593 -0.13149619 250 250 250 -3.1305158 -23.205446 94.399033 0
7.3719344 3.9890118 -0.12962818 250 250 250 -2.7097991 -22.41099 93.95623 0
7.3695045 4.0161438 -0.12436323 250 250 250 -2.2554188 -22.207872 93.612389 0
7.3645806 4.0433321 -0.11953894 250 250 250 -2.0053508 -22.285336 92.988823 0
7.3524961 4.0705466 -0.11519638 250 250 250 -2.0053508 -22.285336 92.988823 0
7.3564601 4.098577 -0.1100838 250 250 250 -2.5457451 -22.009407 93.380005 0
7.3640065 4.1264315 -0.096636966 250 250 250 -2.4418781 -21.94508 91.930542 0
7.3447576 4.1546426 -0.08814428 250 250 250 -1.7724414 -22.459604 89.705788 0
7.331151 4.1797142 -0.081746534 250 250 250 -1.8405508 -22.155052 89.602158 0
7.3381791 4.2063861 -0.073842853 250 250 250 -2.4880047 -21.136282 89.510788 0
7.3399158 4.2278018 -0.054207474 250 250 250 -1.8168926 -20.647514 87.759094 0
7.3226366 4.2522168 -0.040863957 250 250 250 -0.021688748 -21.113663 86.134117 0
7.3014846 4.2752156 -0.038847815 250 250 250 0.94479942 -21.195072 86.437126 0
7.2999897 4.2967634 -0.036341242 250 250 250 0.38129357 -20.430046 87.898468 0
7.3105912 4.3232923 -0.032506298 250 250 250 -0.1478478 -19.592958 87.533501 0
7.3063369 4.3477592 -0.018380316 250 250 250 0.56091499 -19.316788 85.7742 0
7.2862444 4.3696651 -0.0089628333 250 250 250 1.4070565 -19.588755 85.311691 0
7.2741814 4.3930206 -0.0084724361 250 250 250 1.6531919 -19.290001 86.503777 0
7.267138 4.4159613 -0.0086923651 250 250 250 1.1464404 -18.390713 87.442215 0
7.2600656 4.4389982 -0.0057599205 250 250 250 0.1148494 -17.473721 87.820992 0
7.2525377 4.4627156 -0.0032860027 250 250 250 -0.43582368 -17.144535 88.020927 0
7.2452927 4.4868627 -0.0028389392 250 250 250 -0.39911526 -17.129864 88.119011 0
7.2393723 4.5112896 -0.0010778974 250 250 250 0.13191044 -17.048918 87.841141 0
7.2348442 4.5375171 0.0019250289 250 250 250 0.66968268 -17.157751 87.381241 0
7.2307081 4.564805 0.0077880742 250 250 250 0.96614617 -17.437149 86.720146 0
7.223547 4.5916667 0.01606009 250 250 250 1.1278574 -17.879446 86.359596 0
7.2164283 4.6192102 0.023757352 250 250 250 1.2850283 -18.398283 86.512047 0
7.2101846 4.650342 0.03527844 250 250 250 2.0477486 -19.061213 86.679176 0
7.1994243 4.6761932 0.051526092 250 250 250 3.0056198 -20.24638 87.402908 0
7.1876831 4.6943488 0.05915885 250 250 250 2.8595483 -21.212215 89.10228 0
7.1951728 4.7203283 0.059071839 250 250 250 2.0337136 -20.820257 89.551544 0
7.1928582 4.7462711 0.078752153 250 250 250 2.7585363 -20.409595 87.968132 0
7.1778831 4.765666 0.094756119 250 250 250 3.1555758 -20.956196 87.989815 0
7.1696353 4.781023 0.10814822 250 250 250 2.5332713 -20.83938 89.430573 0
7.1653304 4.8020329 0.11944902 250 250 250 0.90959609 -20.34243 90.452614 0
7.1603603 4.8260612 0.13044837 250 250 250 -0.47772178 -20.29587 90.988968 0
7.1568041 4.8522611 0.13899371 250 250 250 -0.81513983 -20.970675 91.10067 0
7.1491852 4.8742371 0.14480598 250 250 250 -0.45732135 -21.647808 90.779419 0
7.1406984 4.8968072 0.14957608 250 250 250 -0.86004537 -21.6101 90.844543 0
7.1320453 4.9199729 0.15410267 250 250 250 -1.2290242 -21.416115 90.941628 0
7.1231794 4.9445229 0.15836804 250 250 250 -0.72728986 -21.545816 90.944008 0
7.1148005 4.9711494 0.16306742 250 250 250 0.026185172 -21.917658 90.916336 0
7.1062174 4.9979177 0.16789094 250 250 250 0.64603263 -22.284782 90.70977 0
7.0963717 5.0245943 0.17299211 250 250 250 0.98881549 -22.396555 90.502327 0
7.0857387 5.0516715 0.17878769 250 250 250 1.1355407 -22.382828 90.517731 0
7.071455 5.0784655 0.18514636 250 250 250 1.4329547 -22.48411 90.977646 0
7.0614676 5.1109171 0.19396733 250 250 250 1.5156784 -22.934723 92.02169 0
7.0486608 5.1386323 0.2050133 250 250 250 1.6188899 -23.601524 92.71125 0
7.0321116 5.1592951 0.21302159 250 250 250 0.42485422 -23.476587 94.246529 0
7.0221548 5.1909671 0.21400194 250 250 250 -1.4181073 -22.456438 95.040588 0
7.0186477 5.2272263 0.22184938 250 250 250 -1.548421 -21.979954 94.204895 0
7.0042911 5.2497201 0.23650546 250 250 250 0.33650279 -22.472694 92.982346 0
6.9867587 5.2607188 0.25396991 250 250 250 2.0112522 -22.623331 93.698235 0
6.9767804 5.2854304 0.26201725 250 250 250 1.6066283 -22.537743 95.214188 0
6.9772072 5.3245645 0.26651612 250 250 250 0.28267038 -22.144056 95.069199 0
6.9727011 5.3574758 0.27851105 250 250 250 0.069950402 -21.953987 93.316154 0
6.95998 5.3683929 0.28929627 250 250 250 1.2088469 -22.229124 92.496872 0
6.947588 5.3814349 0.29762673 250 250 250 2.0059724 -22.416304 93.374565 0
6.9346719 5.4012809 0.30521828 250 250 250 1.8983582 -22.561258 94.93013 0
6.9251885 5.4294047 0.3098745 250 250 250 0.77082235 -22.847792 95.943527 0
6.9156899 5.4571204 0.31419271 250 250 250 -0.12915587 -23.035284 96.212837 0
6.9056253 5.4827271 0.31813961 250 250 250 -0.44495094 -23.148314 96.346024 0
6.8948941 5.505949 0.32168227 250 250 250 -0.463074 -23.178213 96.945305 0
6.8864403 5.5330749 0.32610047 250 250 250 -0.70273072 -23.146027 97.795799 0
6.8824344 5.5666289 0.33205757 250 250 250 -1.2224216 -23.388966 98.321144 0
6.8775063 5.5985818 0.33944261 250 250 250 -1.5546192 -23.876917 98.410423 0
6.8699331 5.6256642 0.34740564 250 250 250 -1.533417 -24.503069 98.592712 0
6.8445477 5.6274581 0.34606096 250 250 250 -1.6457739 -24.852085 99.497513 0
6.8472133 5.664989 0.35323203 250 250 250 -2.9788399 -24.076262 101.2823 0
6.8498054 5.705461 0.36153379 250 250 250 -4.0485988 -22.960583 101.39726 0
6.8519044 5.7405906 0.37874508 250 250 250 -3.5683792 -23.427637 100.52234 0
6.8388195 5.7507987 0.38705021 250 250 250 -2.0892179 -24.911215 100.49523 0
6.8205833 5.7555914 0.39276421 250 250 250 -1.5341498 -25.346651 102.12187 0
6.8144364 5.7796803 0.39893305 250 250 250 -2.9981141 -24.925358 104.33179 0
6.8102179 5.8061848 0.40496153 250 250 250 -4.7775869 -24.083641 105.25616 0
6.8073263 5.8351121 0.41137463 250 250 250 -5.7894449 -24.033695 105.47562 0
6.7902703 5.845623 0.41230249 250 250 250 -5.5672097 -24.290421 105.70974 0
6.7688742 5.8554587 0.41694909 250 250 250 -5.2744288 -24.055096 106.63519 0
6.7656956 5.8819847 0.4236939 250 250 250 -5.8078895 -24.183659 108.28967 0
6.7592325 5.9054704 0.42810386 250 250 250 -6.5630918 -24.438654 109.05495 0
6.7479196 5.9256096 0.43170229 250 250 250 -6.8549619 -24.613424 109.03375 0
6.7319007 5.9414129 0.43314883 250 250 250 -6.7985778 -24.733709 109.21658 0
6.7142701 5.9568801 0.43422374 250 250 250 -6.4461265 -24.481806 109.84827 0
6.7001057 5.9785528 0.43723139 250 250 250 -6.0968637 -24.257023 110.6809 0
6.6862359 6.0006309 0.4406682 250 250 250 -5.8465867 -24.206917 111.35361 0
6.6724615 6.0242667 0.44535103 250 250 250 -6.2979693 -24.271114 112.34532 0
6.665875 6.0508857 0.45005712 250 250 250 -7.409718 -24.32539 113.11654 0
6.6400781 6.067019 0.4538452 250 250 250 -7.7077856 -24.450817 112.96021 0
6.6109347 6.0772333 0.45467758 250 250 250 -7.6995168 -23.927588 113.82236 0
6.6007938 6.09582 0.45933941 250 250 250 -8.0459309 -23.031485 115.32569 0
6.6003189 6.1360641 0.46442816 250 250 250 -7.9494486 -23.189461 115.76817 0
6.5782366 6.1533051 0.4775258 250 250 250 -6.6236877 -24.049442 115.52657 0
6.5472097 6.154778 0.48664087 250 250 250 -5.3315287 -24.411259 116.32261 0
6.5364995 6.1664796 0.4967975 250 250 250 -5.9202414 -24.010889 118.72037 0
6.5586123 6.2094679 0.49634942 250 250 250 -7.7419538 -23.250124 120.59587 0
6.5456672 6.2268996 0.5052352 250 250 250 -8.2075882 -22.678043 120.31846 0
6.5092158 6.2268777 0.51731187 250 250 250 -7.4926825 -22.590027 120.53934 0
6.4869132 6.2361908 0.52215809 250 250 250 -6.7519174 -22.330044 122.20513 0
6.4755735 6.2523394 0.52626449 250 250 250 -6.7022371 -21.729052 123.99872 0
6.465744 6.2732911 0.52868682 250 250 250 -7.4889364 -21.266127 125.67007 0
6.4544873 6.2909222 0.53589022 250 250 250 -8.4303074 -20.886976 126.98123 0
6.4359279 6.3046579 0.53950077 250 250 250 -8.9567232 -20.673996 128.06285 0
6.4184027 6.3202543 0.54079616 250 250 250 -9.2291822 -20.333536 129.37946 0
6.4036965 6.3377676 0.54269809 250 250 250 -9.4707975 -19.877756 130.76566 0
6.3856287 6.3549972 0.54485905 250 250 250 -9.9310226 -19.642441 132.22823 0
6.366272 6.3731537 0.54806572 250 250 250 -10.6038 -19.803816 133.75089 0
6.344439 6.3892784 0.5508514 250 250 250 -11.353714 -20.434912 135.23953 0
6.3482914 6.4115329 0.55459738 250 250 250 -12.539527 -20.638107 137.47682 0
6.3592324 6.4382739 0.56126726 250 250 250 -13.533134 -20.144073 139.18004 0
6.3405585 6.4499488 0.567505 250 250 250 -14.159997 -19.673246 139.79401 0
6.3074088 6.4543214 0.56797343 250 250 250 -14.878209 -19.810446 140.92458 0
6.282856 6.4576507 0.57158804 250 250 250 -15.904819 -19.84388 143.3093 0
6.2784233 6.4677601 0.5763309 250 250 250 -16.657057 -19.535999 145.99828 0
6.2747607 6.4776735 0.58110917 250 250 250 -17.440554 -18.751348 148.70621 0
6.2756133 6.4916401 0.58784372 250 250 250 -18.476992 -17.672005 151.2014 0
6.2514634 6.4957767 0.59580183 250 250 250 -19.525024 -16.962994 152.71053 0
6.2162852 6.492394 0.60005832 250 250 250 -20.23624 -16.957895 154.45517 0
6.1987252 6.5006351 0.60386932 250 250 250 -20.799486 -17.072626 156.92055 0
6.2012687 6.5140619 0.60815388 250 250 250 -21.9231 -16.784063 159.55484 0
6.2022138 6.5304036 0.61458886 250 250 250 -23.558233 -16.108118 161.55632 0
6.1888785 6.5363731 0.61818331 250 250 250 -25.093874 -15.479113 162.66747 0
6.1682968 6.538703 0.6146813 250 250 250 -26.128181 -14.855221 163.7314 0
6.136076 6.5314112 0.61765325 250 250 250 -26.861656 -14.137694 165.1723 0
6.1045136 6.5189328 0.63527906 250 250 250 -27.048973 -14.070133 166.04041 0
6.0849905 6.5175495 0.63812172 250 250 250 -26.766981 -14.720121 166.72681 0
6.0662146 6.5235329 0.63648278 250 250 250 -26.682442 -14.965358 168.21368 0
6.0420556 6.52705 0.64457679 250 250 250 -27.033779 -14.992512 169.66669 0
6.0189657 6.5259104 0.65750253 250 250 250 -27.549595 -15.454618 170.63579 0
5.9885306 6.5377235 0.64497244 250 250 250 -27.434408 -16.257782 172.00179 0
5.9687562 6.5637002 0.61841917 250 250 250 -26.679577 -15.920683 174.45798 0
5.9603515 6.5734549 0.62233472 250 250 250 -26.135124 -13.984943 176.45525 0
5.9352317 6.5806866 0.63709837 250 250 250 -26.024832 -12.512097 177.37128 0
5.9083972 6.5633836 0.64915776 250 250 250 -25.640984 -11.944029 177.81998 0
5.8784776 6.5532522 0.65039742 250 250 250 -25.006844 -11.89544 179.57159 0
5.8609958 6.544879 0.65209323 250 250 250 -24.30958 -11.637982 -177.98747 0
5.8468175 6.5414972 0.65485519 250 250 250 -23.755955 -11.199974 -175.46971 0
5.8315554 6.5539746 0.65588516 250 250 250 -23.384781 -10.741367 -173.37492 0
5.816699 6.560401 0.65416867 250 250 250 -23.367287 -9.9887285 -172.1255 0
5.8022227 6.5589876 0.65733862 250 250 250 -23.621098 -8.9436846 -171.05594 0
5.7895336 6.5547943 0.67016262 250 250 250 -23.96759 -8.0093803 -169.72758 0
5.7739563 6.5599947 0.67988801 250 250 250 -24.272511 -7.860095 -168.31674 0
5.7598138 6.5601602 0.68053007 250 250 250 -24.148527 -8.0676956 -167.55261 0
5.7462416 6.5594287 0.68391848 250 250 250 -23.844646 -7.9760017 -166.83884 0
5.7330604 6.5565186 0.69155318 250 250 250 -23.651615 -7.9991951 -165.97473 0
5.721302 6.546505 0.69619262 250 250 250 -23.522448 -8.2882662 -164.70955 0
5.708776 6.5407567 0.69589579 250 250 250 -23.480715 -8.338274 -162.70247 0
5.6895084 6.5505543 0.69280308 250 250 250 -23.687704 -8.1255665 -160.72182 0
5.6725049 6.5547566 0.69317585 250 250 250 -24.011011 -7.5895371 -159.5677 0
5.6578193 6.5539861 0.7020641 250 250 250 -24.370773 -6.9453292 -158.19096 0
5.6399422 6.5614748 0.71545649 250 250 250 -24.909216 -6.7126403 -156.34579 0
5.6197505 6.5737009 0.73128372 250 250 250 -25.402004 -7.2656832 -155.1862 0
5.607554 6.5774493 0.72892278 250 250 250 -25.430567 -8.406744 -154.97672 0
5.5959249 6.5746188 0.71425146 250 250 250 -25.003601 -8.7716103 -154.52409 0
5.5784979 6.5851698 0.71697932 250 250 250 -24.982962 -7.8852348 -153.7504 0
5.5618386 6.5944452 0.73229259 250 250 250 -25.837992 -7.1785426 -153.36354 0
5.558012 6.5803084 0.74200857 250 250 250 -26.945171 -6.8957663 -152.82106 0
5.5456171 6.5716839 0.73062754 250 250 250 -27.691832 -6.8686786 -151.07852 0
5.5365019 6.5728769 0.72114778 250 250 250 -27.741825 -6.1399145 -149.58212 0
5.5228829 6.5762053 0.7201457 250 250 250 -27.773342 -4.9378676 -148.82085 0
5.503757 6.5762849 0.72111094 250 250 250 -28.045626 -4.0068812 -148.34161 0
5.4891129 6.5689187 0.72080803 250 250 250 -28.329103 -3.3880091 -147.9101 0
5.474195 6.5615759 0.72064573 250 250 250 -28.49791 -2.8393905 -146.97244 0
5.4568276 6.5580173 0.71923363 250 250 250 -28.575588 -2.5489354 -146.04883 0
5.4388003 6.5567069 0.71484029 250 250 250 -28.616846 -2.3021994 -145.64648 0
5.4211321 6.5543189 0.71220154 250 250 250 -28.583345 -1.8173589 -145.54884 0
5.4012432 6.5529394 0.71258467 250 250 250 -28.551672 -1.3342735 -145.45464 0
5.3788033 6.5525603 0.71751344 250 250 250 -28.769257 -1.114199 -145.47665 0
5.3562493 6.5493226 0.72153425 250 250 250 -29.213654 -1.4116836 -145.72211 0
5.3372993 6.540144 0.72287977 250 250 250 -29.358234 -1.8090477 -145.7021 0
5.3160315 6.5323801 0.72590089 250 250 250 -29.295563 -2.0039177 -145.28293 0
5.2903614 6.5304761 0.72998029 250 250 250 -29.845783 -2.1910126 -145.0815 0
5.275876 6.5161376 0.7341674 250 250 250 -30.491743 -2.2275496 -145.27504 0
5.2653399 6.5031466 0.7371794 250 250 250 -30.546886 -1.6371495 -144.81303 0
5.2376604 6.4941216 0.74580055 250 250 250 -30.232471 -1.0790731 -144.21213 0
5.2161479 6.4798546 0.763937 250 250 250 -29.9554 -1.4298087 -144.04117 0
5.2057633 6.4621964 0.78269607 250 250 250 -29.383211 -1.9573445 -143.37077 0
5.1916366 6.4488578 0.7880733 250 250 250 -28.66114 -2.5146627 -141.90112 0
5.1656504 6.443593 0.76758748 250 250 250 -28.233671 -3.2455475 -140.81656 0
5.1418819 6.4384012 0.74952799 250 250 250 -27.990915 -3.3268218 -141.13181 0
5.1312871 6.4250698 0.75883293 250 250 250 -27.979599 -2.4031985 -141.754 0
5.1241245 6.4073119 0.78455067 250 250 250 -27.996149 -1.2834611 -141.23947 0
5.1055098 6.3969111 0.78052849 250 250 250 -27.768311 -1.4768256 -140.24472 0
5.0937047 6.3872733 0.77445418 250 250 250 -26.984932 -1.5289513 -139.92377 0
5.0842719 6.3777065 0.77047491 250 250 250 -26.553913 -0.67776895 -139.12843 0
5.0654354 6.3701539 0.76119965 250 250 250 -26.785576 0.38744196 -137.91643 0
5.0364575 6.3605928 0.75490767 250 250 250 -27.200506 1.0217212 -137.30504 0
5.0152693 6.3467188 0.76559097 250 250 250 -27.275644 1.1370583 -137.36443 0
5.0065856 6.333221 0.77464855 250 250 250 -26.887398 1.0292352 -137.17229 0
4.9935308 6.3242388 0.76942408 250 250 250 -26.452356 1.1750433 -136.15361 0
4.9705167 6.3142357 0.76345062 250 250 250 -26.579903 1.4831601 -135.21323 0
4.9498105 6.3009539 0.76379859 250 250 250 -27.292665 1.8478144 -134.55707 0
4.9391837 6.2828212 0.77553862 250 250 250 -27.883369 2.2352524 -133.4679 0
4.9241977 6.2683835 0.77013719 250 250 250 -28.024525 2.3701901 -131.65495 0
4.9021406 6.2596116 0.7504943 250 250 250 -27.962786 2.2915835 -130.62337 0
4.8859801 6.2442746 0.75424999 250 250 250 -27.932823 2.7904341 -130.26303 0
4.8741064 6.2282829 0.75633657 250 250 250 -28.305065 3.6312833 -129.22711 0
4.8603024 6.2120881 0.75856751 250 250 250 -28.686241 4.7376161 -127.77911 0
4.843555 6.1953783 0.76130742 250 250 250 -29.008165 5.2367649 -126.49119 0
4.8324184 6.1807184 0.75994521 250 250 250 -29.147739 5.4235897 -125.5331 0
4.8246655 6.1693811 0.75408006 250 250 250 -29.104525 6.0262952 -124.57519 0
4.8107514 6.1547952 0.75001705 250 250 250 -28.981667 7.0014706 -123.61559 0
4.7967992 6.1386929 0.74746633 250 250 250 -28.920525 7.6721921 -122.89188 0
4.7849689 6.1213388 0.74594164 250 250 250 -28.8508 8.1564503 -122.09815 0
4.7734222 6.1035829 0.74438941 250 250 250 -28.746197 8.6338873 -121.01065 0
4.7618904 6.0845456 0.74216515 250 250 250 -28.669928 8.9080601 -119.78236 0
4.7506018 6.0657964 0.7366854 250 250 250 -28.563889 9.0697241 -118.58939 0
4.7391787 6.045794 0.73077339 250 250 250 -28.455189 9.168519 -117.72702 0
4.7289839 6.0249281 0.72521448 250 250 250 -28.25108 9.3061829 -117.02695 0
4.7165842 6.0010829 0.72130996 250 250 250 -28.083458 9.4260883 -116.08295 0
4.7036958 5.9755311 0.71715117 250 250 250 -28.172503 9.161272 -115.22162 0
4.699964 5.9525585 0.7114085 250 250 250 -28.030592 8.7984085 -114.46769 0
4.716804 5.9408317 0.7011162 250 250 250 -27.272434 9.5859032 -113.48013 0
4.6920261 5.9179792 0.68761545 250 250 250 -27.061741 11.419199 -111.94851 0
4.6605639 5.8832002 0.67925954 250 250 250 -27.846497 12.137446 -112.35758 0
4.6707034 5.8590155 0.69401693 250 250 250 -28.248642 12.533236 -113.35658 0
4.6818743 5.8327928 0.7093873 250 250 250 -27.487417 13.06001 -111.74393 0
4.664475 5.8068867 0.70345509 250 250 250 -26.576273 12.638371 -109.66116 0
4.6607847 5.7920337 0.69245899 250 250 250 -26.245825 12.390067 -109.19888 0
4.6543078 5.7714448 0.69454235 250 250 250 -26.529829 12.810707 -108.45081 0
4.6474242 5.7507143 0.695355 250 250 250 -26.928293 12.655904 -107.94064 0
4.6526918 5.7312059 0.69327116 250 250 250 -26.153547 12.491408 -107.63738 0
4.6571202 5.7115259 0.69319355 250 250 250 -24.660105 12.903154 -106.20477 0
4.6467972 5.687479 0.68773341 250 250 250 -23.764786 12.940191 -104.69405 0
4.6476359 5.6694598 0.68038332 250 250 250 -23.235216 12.883556 -104.00855 0
4.6482348 5.6504006 0.67330879 250 250 250 -23.098152 13.272385 -103.07571 0
4.6468616 5.6298699 0.6679557 250 250 250 -23.271088 13.679565 -102.06156 0
4.6464314 5.6095095 0.66366351 250 250 250 -23.189642 13.710515 -101.03617 0
4.6457958 5.5891328 0.65957326 250 250 250 -22.673658 13.443602 -99.847748 0
4.644908 5.5692663 0.65383911 250 250 250 -21.921837 13.250389 -98.574181 0
4.6439657 5.5487986 0.64825988 250 250 250 -21.307652 13.609435 -97.028992 0
4.6381035 5.5267315 0.64465189 250 250 250 -21.362385 14.182031 -95.26532 0
4.6332912 5.5030584 0.64245772 250 250 250 -21.992651 14.40989 -93.815804 0
4.6340084 5.479208 0.64237839 250 250 250 -22.332987 14.065156 -92.211922 0
4.643414 5.4604902 0.63760775 250 250 250 -21.911448 13.897262 -89.478035 0
4.637712 5.444355 0.62901419 250 250 250 -20.986948 14.62231 -86.246323 0
4.6255498 5.4259243 0.62282401 250 250 250 -20.876392 15.889419 -84.719978 0
4.6256247 5.4051671 0.62922513 250 250 250 -21.16613 16.679813 -84.24588 0
4.6368599 5.3868785 0.63368636 250 250 250 -21.644865 16.713745 -82.989571 0
4.6491623 5.372077 0.6345644 250 250 250 -21.047796 16.540958 -80.5681 0
4.656415 5.3601489 0.63367128 250 250 250 -19.704529 16.575706 -77.774422 0
4.6542358 5.3470893 0.63640469 250 250 250 -18.193449 16.699017 -75.905022 0
4.6564698 5.3325386 0.63645512 250 250 250 -16.944609 16.70187 -74.954956 0
4.6593924 5.3096232 0.63480133 250 250 250 -16.407454 16.739536 -73.775597 0
4.662003 5.2892704 0.63174945 250 250 250 -16.988943 16.56233 -72.589111 0
4.6581755 5.2778907 0.62598151 250 250 250 -18.162676 16.612394 -71.749229 0
4.6633663 5.2636247 0.6160509 250 250 250 -19.642229 16.948566 -71.203247 0
4.6683474 5.2501502 0.60598481 250 250 250 -20.617615 17.382635 -70.403877 0
4.6707158 5.2397337 0.60157174 250 250 250 -20.862513 17.928392 -69.810875 0
4.6758609 5.2237968 0.59825158 250 250 250 -20.476473 18.022497 -69.680382 0
4.6816382 5.2060518 0.59430462 250 250 250 -19.687843 17.561495 -69.587608 0
4.6860685 5.1885962 0.58675569 250 250 250 -18.698004 17.109541 -69.282295 0
4.6908946 5.1711459 0.57879609 250 250 250 -18.012938 17.014387 -68.957161 0
4.69875 5.1487908 0.56870341 250 250 250 -17.648022 17.055767 -68.539948 0
4.7078505 5.1263485 0.56093299 250 250 250 -17.515314 16.99526 -67.769806 0
4.7126832 5.111815 0.55587953 250 250 250 -16.818577 16.958771 -67.18383 0
4.7168975 5.0961752 0.54842699 250 250 250 -15.372921 17.468517 -66.501328 0
4.7148404 5.0790796 0.55163401 250 250 250 -14.975565 18.399405 -66.122887 0
4.7219663 5.0584993 0.55662954 250 250 250 -15.668041 18.789297 -66.986511 0
4.7394423 5.0334868 0.55093837 250 250 250 -15.519591 18.360212 -67.525719 0
4.7525196 5.0114069 0.55045956 250 250 250 -14.599105 17.665148 -67.280899 0
4.7651286 4.9895606 0.5500685 250 250 250 -13.604197 16.780775 -67.018105 0
4.7789111 4.9704165 0.54618973 250 250 250 -12.611535 16.0359 -66.397964 0
4.7865248 4.955915 0.54743564 250 250 250 -11.716551 15.596354 -65.582672 0
4.7862082 4.9432926 0.55217868 250 250 250 -11.075108 15.155195 -65.350838 0
4.7942061 4.9248519 0.55033731 250 250 250 -10.698997 14.650184 -65.443077 0
4.8010736 4.905467 0.54931921 250 250 250 -10.083033 13.938843 -65.323151 0
4.8040686 4.8926139 0.54773897 250 250 250 -8.8770895 13.369639 -65.443764 0
4.8065701 4.8785415 0.54253978 250 250 250 -7.5443935 13.333705 -65.336754 0
4.8078427 4.8632059 0.53667867 250 250 250 -7.2282338 13.522032 -65.03759 0
4.8093376 4.8453274 0.53033787 250 250 250 -7.7446866 13.786126 -65.142929 0
4.8112044 4.8258729 0.52340293 250 250 250 -8.3128672 13.887931 -65.35614 0
4.8119411 4.8045788 0.51673234 250 250 250 -8.7062778 13.567872 -65.491592 0
4.8066316 4.784152 0.51146138 250 250 250 -9.3680115 12.971915 -65.755386 0
4.7996092 4.7660089 0.50751036 250 250 250 -10.656968 12.722594 -66.227402 0
4.7930708 4.749609 0.50432426 250 250 250 -11.84828 12.59106 -67.179863 0
4.7898951 4.7276907 0.49806669 250 250 250 -12.100116 12.780498 -68.125175 0
4.8047371 4.7020955 0.48189062 250 250 250 -11.489468 13.369624 -68.09552 0
4.8068972 4.678329 0.47202909 250 250 250 -10.952914 14.198158 -66.979095 0
4.8082304 4.6535635 0.4689 250 250 250 -11.19225 14.724491 -66.253296 0
4.8160529 4.6285033 0.46283978 250 250 250 -11.464852 14.397884 -65.768791 0
4.8175735 4.6145754 0.45983675 250 250 250 -10.842669 14.32182 -64.733124 0
4.8147326 4.5977035 0.45995775 250 250 250 -10.368597 14.811782 -64.104263 0
4.8182425 4.5647221 0.45691475 250 250 250 -10.669288 14.453815 -64.458435 0
4.8403487 4.5429029 0.44569287 250 250 250 -10.729071 13.696554 -64.281578 0
4.8326149 4.5256481 0.45149708 250 250 250 -9.8816566 13.407829 -62.923645 0
4.8263412 4.5103912 0.45398408 250 250 250 -9.0975866 13.448423 -63.011803 0
4.8370357 4.4896245 0.44403201 250 250 250 -8.3793802 13.900318 -63.34708 0
4.8477478 4.4672399 0.4360936 250 250 250 -8.3874645 14.217039 -62.318535 0
4.8522096 4.4422674 0.43208659 250 250 250 -8.9720268 14.161674 -61.821571 0
4.861692 4.4187174 0.42634135 250 250 250 -9.1063929 13.951542 -62.293339 0
4.8705955 4.3947744 0.41976881 250 250 250 -8.4565086 13.642927 -62.309429 0
4.8769131 4.3713322 0.41252232 250 250 250 -7.9423752 13.511825 -62.315178 0
4.8818026 4.3474975 0.40447497 250 250 250 -8.058177 13.828438 -62.509228 0
4.8872294 4.3217578 0.39605445 250 250 250 -9.0156174 14.428335 -62.89381 0
4.8930249 4.2956953 0.38982373 250 250 250 -10.539956 14.788468 -63.559898 0
4.9051709 4.2748609 0.38116497 250 250 250 -11.042117 14.955368 -64.40477 0
4.9158711 4.2523994 0.3726843 250 250 250 -10.408925 15.630257 -64.451233 0
4.9225769 4.228179 0.36898562 250 250 250 -10.229309 16.070019 -64.711212 0
4.9325147 4.2014151 0.36470246 250 250 250 -10.541239 15.824794 -65.48291 0
4.9438682 4.1751947 0.36086214 250 250 250 -10.403824 15.259848 -65.869759 0
4.9545693 4.1503968 0.35796559 250 250 250 -9.6583452 14.520888 -65.71981 0
4.9606662 4.1302891 0.35763264 250 250 250 -8.8146248 13.898246 -65.46627 0
4.9644365 4.1094508 0.35763887 250 250 250 -8.3261824 13.422441 -65.634773 0
4.9728346 4.0876546 0.35403559 250 250 250 -8.3145809 12.955314 -65.951775 0
4.9833293 4.0662479 0.35000527 250 250 250 -8.5674334 12.448311 -65.512535 0
4.9900589 4.0479398 0.34664845 250 250 250 -8.8163853 12.102331 -64.642776 0
4.9967785 4.0290141 0.33895847 250 250 250 -9.3153257 12.314204 -63.764874 0
4.9990253 4.0104356 0.33702588 250 250 250 -10.155141 13.004859 -63.137924 0
5.0031142 3.9907377 0.3356224 250 250 250 -11.009295 13.270986 -63.725292 0
5.0074139 3.9705877 0.33267885 250 250 250 -10.668752 12.994083 -64.226212 0
5.0115347 3.9498913 0.32808524 250 250 250 -9.7616749 12.647192 -63.918182 0
5.0146246 3.9295845 0.32227346 250 250 250 -9.1268988 12.484753 -63.393333 0
5.0181561 3.9083431 0.31520212 250 250 250 -9.0928373 12.517469 -62.912861 0
5.0206366 3.886204 0.30882251 250 250 250 -9.5992842 12.501722 -62.543995 0
5.0182261 3.8626781 0.30848515 250 250 250 -10.301169 12.185623 -62.803074 0
5.0173426 3.8375747 0.30438986 250 250 250 -10.342188 11.297413 -63.465755 0
5.0180225 3.8145523 0.29424658 250 250 250 -9.5731602 10.889374 -63.721191 0
5.0104742 3.7922366 0.28620863 250 250 250 -9.2027626 11.498129 -63.901619 0
5.007412 3.7737992 0.27800345 250 250 250 -9.9165955 12.287164 -65.056412 0
5.0140433 3.7534182 0.27270985 250 250 250 -11.335769 12.739705 -65.871445 0
5.0236473 3.7302945 0.27410358 250 250 250 -12.588929 13.032247 -65.54528 0
5.0223036 3.7066548 0.2774429 250 250 250 -13.266851 12.945891 -65.035332 0
5.0211387 3.6847899 0.27526623 250 250 250 -13.339007 12.717175 -65.100533 0
5.0255032 3.6661594 0.27024105 250 250 250 -12.837302 12.811571 -65.123039 0
5.0278549 3.6464219 0.26557925 250 250 250 -12.369055 13.24239 -64.862434 0
5.0299282 3.6235583 0.26243603 250 250 250 -12.368979 13.41371 -64.862106 0
5.0351262 3.6014409 0.25863093 250 250 250 -12.569864 13.051796 -64.892929 0
5.0387239 3.5798948 0.25526246 250 250 250 -12.522779 12.568093 -64.74366 0
5.0388908 3.5581348 0.25035709 250 250 250 -12.511421 12.137308 -65.054634 0
5.0424557 3.5384626 0.24020159 250 250 250 -12.819923 12.001987 -65.735626 0
5.0466137 3.5176127 0.22973083 250 250 250 -13.388392 12.21201 -65.94519 0
5.0463724 3.49494 0.22283746 250 250 250 -14.452471 12.574297 -66.24942 0
5.0483932 3.4703381 0.21738532 250 250 250 -15.528912 12.721058 -67.134087 0
5.0562615 3.4435368 0.21260948 250 250 250 -16.055273 12.367206 -67.841393 0
5.0587931 3.4140096 0.21496962 250 250 250 -16.190752 11.43385 -68.380859 0
5.0598955 3.3845265 0.21847336 250 250 250 -15.977854 9.729599 -69.57325 0
5.0801277 3.364851 0.20656103 250 250 250 -15.206011 8.0146589 -70.915321 0
5.0949841 3.3479722 0.19160418 250 250 250 -14.514706 7.4931455 -71.226562 0
5.0894036 3.3224549 0.18309514 250 250 250 -14.723 7.8519335 -71.849548 0
5.0804338 3.2933242 0.19104438 250 250 250 -15.742792 8.2771835 -73.388443 0
5.0977788 3.2726593 0.19694743 250 250 250 -16.608128 7.9580297 -75.071404 0
5.1243048 3.2583382 0.19917814 250 250 250 -16.449036 7.276444 -75.699051 0
5.1316843 3.2401392 0.19379221 250 250 250 -15.549844 6.7189384 -75.332741 0
5.1249561 3.2191892 0.18357988 250 250 250 -14.452377 6.9307714 -75.601776 0
5.1354599 3.2028265 0.17460677 250 250 250 -13.526363 7.5204606 -76.373688 0
5.1468515 3.184232 0.17340621 250 250 250 -12.946671 7.7931628 -76.554405 0
5.1516151 3.1637454 0.17079635 250 250 250 -12.272492 7.5427895 -76.631233 0
5.1531887 3.1442077 0.16266407 250 250 250 -11.339414 7.3941712 -77.064034 0
