ply
format ascii 1.0
comment PCL generated
element vertex 525
property float x
property float y
property float z
property uchar red
property uchar green
property uchar blue
property float nx
property float ny
property float nz
property float curvature
element camera 1
property float view_px
property float view_py
property float view_pz
property float x_axisx
property float x_axisy
property float x_axisz
property float y_axisx
property float y_axisy
property float y_axisz
property float z_axisx
property float z_axisy
property float z_axisz
property float focal
property float scalex
property float scaley
property float centerx
property float centery
property int viewportx
property int viewporty
property float k1
property float k2
end_header
1.3890595 -1.6236746 -0.099873401 250 0 0 1.1276721 -10.214042 128.35966 0
1.3778882 -1.5878168 -0.10212792 250 0 0 1.357097 -9.8712692 129.20639 0
1.3476917 -1.5203457 -0.079415172 250 0 0 1.2837809 -9.9744883 131.13408 0
1.3374305 -1.4956908 -0.070023566 250 0 0 1.3287793 -10.378019 131.57161 0
1.3222902 -1.4508048 -0.057023179 250 0 0 2.3211908 -11.820455 132.12372 0
1.2961248 -1.3948332 -0.052738346 250 0 0 2.9451106 -12.603706 131.67619 0
1.2519678 -1.3234452 -0.064175881 250 0 0 3.2341681 -11.21235 130.23988 0
1.2299535 -1.2918528 -0.064068139 250 0 0 3.1207969 -10.79563 129.56209 0
1.1787977 -1.2262691 -0.058308609 250 0 0 2.0474715 -11.314044 128.6665 0
1.0863615 -1.1375651 -0.014652238 250 0 0 2.2153127 -11.64616 126.32718 0
1.0705498 -1.1091899 -0.019090783 250 0 0 1.7728027 -12.509987 125.83566 0
1.0153233 -1.0739754 -0.022346621 250 0 0 1.7863849 -10.755596 125.76812 0
0.93341267 -0.96870434 -0.028978784 250 0 0 1.7969162 -8.4044018 127.34744 0
0.84092623 -0.82901508 -0.018916877 250 0 0 0.85250652 -10.317918 129.81363 0
0.79391074 -0.79799402 -0.010325568 250 0 0 0.49347001 -9.7640238 130.37181 0
0.742257 -0.71316212 0.01506899 250 0 0 -0.12309434 -10.979132 132.94356 0
0.64275497 -0.61699808 0.027648687 250 0 0 2.1896243 -10.353427 135.3188 0
0.61605436 -0.56289899 0.020301836 250 0 0 1.792506 -10.030311 135.63118 0
0.52918082 -0.48707902 0.03753344 250 0 0 0.78638381 -10.388083 134.77933 0
0.41003296 -0.36962447 0.077636272 250 0 0 0.38513723 -10.193973 132.79701 0
0.37526265 -0.3445372 0.07230249 250 0 0 0.4129242 -11.394071 132.12624 0
0.30146945 -0.27154613 0.060079437 250 0 0 1.5877097 -9.5552788 131.83057 0
0.18051513 -0.14598328 0.058011744 250 0 0 1.8797944 -9.4679136 133.88887 0
0.052217312 -0.0068285516 0.098443203 250 0 0 1.4683968 -8.5754423 135.3517 0
0.022451663 0.056102343 0.11436895 250 0 0 0.47236362 -9.8777275 136.65367 0
-0.04420834 0.11116146 0.12143996 250 0 0 1.975641 -10.14823 136.62816 0
-0.14932787 0.26036507 0.10308149 250 0 0 2.7766273 -10.369986 136.19897 0
-0.20295046 0.30035466 0.12497886 250 0 0 2.818186 -10.123655 135.29771 0
-0.27621633 0.41335672 0.12304919 250 0 0 1.0919491 -12.01089 133.79225 0
-0.40583202 0.50637078 0.15168592 250 0 0 2.6426885 -12.566149 130.2767 0
-0.5431059 0.61857033 0.15009284 250 0 0 4.245369 -10.585878 131.87285 0
-0.57388866 0.69258916 0.15411799 250 0 0 3.4757876 -11.550697 132.62953 0
-0.64921898 0.78493422 0.11586422 250 0 0 1.9334928 -11.264518 132.38536 0
-0.78230131 0.97179019 0.16850489 250 0 0 0.40512192 -10.958792 134.68883 0
-0.84642202 0.97018468 0.1820793 250 0 0 1.4894177 -10.477169 134.27228 0
-0.90578985 1.1147512 0.19570117 250 0 0 3.5201375 -11.627536 135.58015 0
-1.0437617 1.2481123 0.1819616 250 0 0 1.8140063 -11.144698 134.67903 0
-1.0689055 1.3015428 0.18478315 250 0 0 -0.0016265487 -11.884129 133.7592 0
-1.1532034 1.3592441 0.21867879 250 0 0 1.3646436 -11.843873 130.71161 0
-1.2685802 1.4722247 0.18953201 250 0 0 2.1071589 -10.817993 128.91426 0
-1.4273587 1.5991343 0.20312031 250 0 0 1.6524343 -11.229507 130.06099 0
-1.4607594 1.6574979 0.19491592 250 0 0 1.0413297 -10.677022 130.5047 0
-1.571835 1.7504754 0.24128433 250 0 0 0.25929326 -10.166855 132.6205 0
-1.6955022 1.8840961 0.2946043 250 0 0 0.51566237 -10.930545 134.58142 0
-1.7301439 1.9444782 0.30401883 250 0 0 0.80410516 -12.023926 135.3519 0
-1.8018343 2.0485749 0.28509963 250 0 0 1.0268511 -12.835434 134.16519 0
-1.9353386 2.1584198 0.28200603 250 0 0 -0.74677837 -12.083955 130.69244 0
-1.9864513 2.1957386 0.30757526 250 0 0 0.043574255 -11.611156 129.91238 0
-2.0708735 2.2545531 0.29477191 250 0 0 1.4659088 -11.239654 128.94467 0
-2.2180135 2.3704386 0.31370798 250 0 0 2.1693261 -10.782635 131.56943 0
-2.3416939 2.4943366 0.31445366 250 0 0 1.3300092 -10.561123 133.78003 0
-2.4015172 2.5338924 0.34074739 250 0 0 1.6086767 -10.423051 135.73335 0
-2.4483054 2.6489682 0.34789088 250 0 0 -0.27611926 -10.978718 138.31984 0
-2.5839264 2.7699714 0.36452216 250 0 0 1.1788112 -10.829946 138.46005 0
-2.6233804 2.8196208 0.3519913 250 0 0 0.72243005 -11.177231 137.98122 0
-2.711376 2.8966441 0.33509314 250 0 0 -0.51611036 -9.8412733 135.10812 0
-2.8455083 3.0074153 0.38050413 250 0 0 0.966658 -9.6331434 132.20287 0
-2.9984269 3.1342053 0.39251187 250 0 0 2.8115833 -9.0103645 131.79332 0
-3.0504639 3.1851225 0.39313114 250 0 0 2.0921168 -9.2755232 133.0085 0
-3.1331539 3.3105078 0.38037446 250 0 0 -0.060473852 -11.209281 134.69035 0
-3.2690561 3.4043658 0.3923181 250 0 0 -3.3534131 -11.60741 136.81079 0
-3.3151846 3.4337826 0.39992261 250 0 0 -2.6722245 -11.168816 136.52863 0
-3.4127133 3.5308881 0.42632994 250 0 0 -1.2435998 -11.742257 137.44067 0
-3.521992 3.6797426 0.39240593 250 0 0 -0.94235492 -12.261135 134.50722 0
-3.6647778 3.7357683 0.40960866 250 0 0 0.26065335 -10.485188 128.8856 0
-3.7288415 3.7713075 0.42901239 250 0 0 2.2423613 -9.5541544 128.94171 0
-3.8150156 3.8592288 0.40283316 250 0 0 2.580874 -10.0566 130.27095 0
-3.9827132 3.9920423 0.39823768 250 0 0 1.728496 -11.313347 136.00763 0
-4.0356412 4.0229979 0.42334321 250 0 0 1.8856876 -11.5372 137.91577 0
-4.1036119 4.1183596 0.39635277 250 0 0 -0.78896892 -11.249156 137.61932 0
-4.2327256 4.2366643 0.41672546 250 0 0 0.081014842 -11.7853 137.98831 0
-4.2740202 4.2759662 0.39241263 250 0 0 0.23838308 -11.67923 136.89951 0
-4.3601484 4.3912606 0.39659566 250 0 0 -0.26806715 -11.715388 134.9873 0
-4.4998951 4.4404469 0.42790771 250 0 0 0.57987833 -10.246318 131.20166 0
-4.6290388 4.541307 0.41647711 250 0 0 1.6354218 -10.791732 135.1113 0
-4.6800961 4.6078024 0.42786822 250 0 0 1.3971484 -11.180382 137.04121 0
-4.7652655 4.7079692 0.42074645 250 0 0 0.58129412 -12.696324 139.22127 0
-4.8907404 4.8348823 0.43773577 250 0 0 -1.369239 -13.202404 138.71422 0
-4.9004698 4.8744035 0.44495156 250 0 0 0.045113884 -11.942409 138.40366 0
-5.0020132 5.0128059 0.44554865 250 0 0 0.35946277 -13.302136 137.89839 0
-5.1348538 5.1410947 0.44040319 250 0 0 -0.166316 -12.635485 135.22226 0
-5.2485623 5.1949081 0.46217698 250 0 0 0.41231355 -12.098006 132.8447 0
-5.2989135 5.2356777 0.47684452 250 0 0 1.7966206 -11.600368 133.18112 0
-5.3671432 5.2974072 0.45987561 250 0 0 1.683484 -10.982152 135.06943 0
-5.5164094 5.3961172 0.45567173 250 0 0 0.85993904 -12.888145 143.66151 0
-5.5669131 5.4455042 0.46610746 250 0 0 -1.1575298 -11.817906 146.36742 0
-5.6645384 5.5432172 0.47756356 250 0 0 -3.0440404 -11.75409 151.53952 0
-5.8464503 5.6371255 0.49233434 250 0 0 -3.2977254 -10.565458 155.99449 0
-5.8904901 5.6605644 0.4802103 250 0 0 -3.7050829 -11.503398 157.13754 0
-6.0014682 5.7097211 0.4745138 250 0 0 -3.7368891 -11.577582 159.02939 0
-6.1616697 5.8075004 0.48187137 250 0 0 -5.4778118 -12.512049 161.63725 0
-6.3311586 5.8410854 0.49336949 250 0 0 -1.8325382 -10.666463 162.87538 0
-6.3749609 5.8338561 0.47609842 250 0 0 -2.0475714 -10.216286 164.50648 0
-6.548378 5.8591413 0.48761877 250 0 0 -2.1427097 -10.394818 170.9437 0
-6.7216516 5.8924365 0.47380674 250 0 0 -3.7149286 -9.2036591 179.03897 0
-6.8059702 5.9003239 0.48076564 250 0 0 -5.4367547 -9.7475729 -179.5332 0
-6.9120102 5.8879757 0.48028651 250 0 0 -3.608357 -8.1944857 -175.74553 0
-7.1129394 5.9219165 0.45417133 250 0 0 -3.1550567 -8.7748108 -174.74974 0
-7.3031769 5.9396152 0.44576168 250 0 0 -5.2644458 -9.5533772 -174.0992 0
-7.3436995 5.8994603 0.45055795 250 0 0 -4.5598116 -7.993526 -174.6964 0
-7.4794402 5.8974333 0.45717415 250 0 0 -2.5355325 -7.4778838 -171.62442 0
-7.6854658 5.8203692 0.44045672 250 0 0 -2.4108441 -8.0378933 -163.23868 0
-7.7484875 5.8222866 0.41904613 250 0 0 -3.9311311 -7.4318852 -160.19597 0
-7.8983188 5.8076987 0.43339872 250 0 0 -5.5257955 -5.6934485 -155.5815 0
-8.088047 5.7389698 0.44801602 250 0 0 -3.9112053 -4.8186111 -150.81712 0
-8.1241503 5.7131824 0.42839324 250 0 0 -4.4938135 -6.1566534 -150.39729 0
-8.2219315 5.6643219 0.41798329 250 0 0 -3.640954 -5.6440372 -151.23932 0
-8.2402697 5.5600829 0.41399926 250 0 0 -4.9682307 -5.8223319 -152.7764 0
-8.4326162 5.4779983 0.43371463 250 0 0 -2.1366913 -6.116785 -150.69299 0
-8.4920168 5.4366083 0.42262867 250 0 0 -2.5405352 -7.1558895 -149.20673 0
-8.614253 5.3580713 0.40766779 250 0 0 -4.3079772 -9.4392662 -146.42661 0
-8.7023134 5.2428026 0.40671188 250 0 0 -5.1079512 -7.1175561 -143.16083 0
-8.7505989 5.2108727 0.41317296 250 0 0 -3.636025 -4.8304462 -141.49229 0
-8.8774452 5.1432328 0.41617811 250 0 0 -3.0610218 -6.9673052 -140.0016 0
-9.0387354 5.0358696 0.42894718 250 0 0 -4.3121939 -3.3582754 -143.27162 0
-9.0869188 5.0000582 0.45423487 250 0 0 -4.2587261 -3.9864609 -144.16083 0
-9.1387405 4.9252791 0.4534924 250 0 0 -3.4203348 -2.2431448 -145.93156 0
-9.2474394 4.8128557 0.45646825 250 0 0 -2.0860093 -2.8468704 -143.80304 0
-9.3669128 4.6953263 0.46859667 250 0 0 -3.484513 -5.1687193 -139.7849 0
-9.4053946 4.6635919 0.47362074 250 0 0 -2.7766061 -5.0517678 -138.0564 0
-9.4723234 4.6050057 0.47443956 250 0 0 -4.7412291 -5.1287498 -138.82063 0
-9.6174688 4.5286083 0.47888923 250 0 0 -4.1142755 -4.6761742 -138.65842 0
-9.6324215 4.4702678 0.45153031 250 0 0 -4.2238107 -5.0107732 -139.5919 0
-9.7362661 4.3806629 0.45088676 250 0 0 -3.4651656 -6.8002095 -139.86989 0
-9.8536234 4.2560763 0.41140449 250 0 0 -3.6130905 -6.5072036 -142.30663 0
-9.9725885 4.1141129 0.4031142 250 0 0 -2.1365669 -6.146893 -140.24037 0
-10.037597 4.0776148 0.39980114 250 0 0 -2.1140544 -6.3719306 -139.52083 0
-10.131699 3.9844151 0.39742845 250 0 0 -2.1423721 -6.1002259 -137.45282 0
-10.281091 3.8805528 0.40508851 250 0 0 -3.181803 -5.2391539 -138.22894 0
-10.314291 3.8340058 0.40946141 250 0 0 -1.8688306 -3.9829605 -137.79556 0
-10.411379 3.7702732 0.40672398 250 0 0 -2.5465565 -4.9556718 -136.78166 0
-10.534002 3.6420579 0.38837579 250 0 0 -2.8347948 -4.2659955 -138.55991 0
-10.562752 3.5985274 0.38320351 250 0 0 -3.6805902 -3.8032477 -139.44783 0
-10.636723 3.5108042 0.39807731 250 0 0 -3.3185394 -2.8962934 -141.44327 0
-10.741633 3.376277 0.40104753 250 0 0 -1.3110552 -2.8875718 -141.10912 0
-10.859437 3.2294197 0.38368547 250 0 0 -0.7430886 -4.8448634 -136.56169 0
-10.919565 3.172884 0.4019281 250 0 0 -1.3658203 -5.039607 -134.27858 0
-11.026615 3.0902793 0.38835981 250 0 0 -3.0487747 -5.9541512 -132.62521 0
-11.156722 2.9588439 0.40018928 250 0 0 -1.7911581 -5.0929184 -132.39809 0
-11.198441 2.9226966 0.37627426 250 0 0 -1.7972383 -5.6748986 -132.67882 0
-11.279184 2.8281155 0.36799031 250 0 0 -1.2014621 -5.2931995 -133.10176 0
-11.399323 2.6754737 0.38137418 250 0 0 -2.5555251 -5.515625 -133.0954 0
-11.48123 2.5177393 0.37544179 250 0 0 -0.81624675 -5.7372079 -131.68205 0
-11.498823 2.4588463 0.3591305 250 0 0 -1.0425719 -5.0873308 -130.65324 0
-11.558039 2.3292449 0.35901541 250 0 0 -1.4587693 -5.2906408 -125.17948 0
-11.629128 2.1381717 0.33481783 250 0 0 -2.8914671 -4.6133003 -116.86752 0
-11.680634 2.0870237 0.34131798 250 0 0 -3.4445031 -4.3894391 -113.66946 0
-11.698499 1.9637852 0.34379905 250 0 0 -2.1989155 -3.382736 -110.03954 0
-11.773954 1.7720436 0.33000201 250 0 0 -2.7670968 -6.2911563 -105.82 0
-11.814584 1.5825951 0.32255727 250 0 0 -4.4179401 -6.3223243 -105.19799 0
-11.829402 1.528873 0.31683677 250 0 0 -4.0400677 -5.7695751 -106.01537 0
-11.822006 1.4022487 0.33569914 250 0 0 -2.0660565 -5.006813 -105.41426 0
-11.828907 1.2197626 0.29392275 250 0 0 -1.1559829 -5.3746738 -100.91409 0
-11.825769 1.1599345 0.27789935 250 0 0 -0.47647488 -4.9959674 -98.343063 0
-11.819555 1.0294363 0.28262258 250 0 0 -0.4369573 -3.0031164 -93.337242 0
-11.822181 0.84103042 0.29692823 250 0 0 -0.4998599 -2.9194529 -85.84269 0
-11.822016 0.64767289 0.27882084 250 0 0 0.16517845 -3.6612129 -82.700729 0
-11.819968 0.58205128 0.26230469 250 0 0 0.013301676 -3.433888 -82.859245 0
-11.804485 0.44754207 0.25990662 250 0 0 -2.9866288 -3.2736382 -82.768082 0
-11.791392 0.25495893 0.2780205 250 0 0 -2.3154557 -3.0969727 -84.622963 0
-11.775682 0.19699192 0.269831 250 0 0 -1.2566453 -2.9555373 -84.799515 0
-11.751973 0.072424024 0.253968 250 0 0 0.93511689 -2.4899702 -82.944298 0
-11.736059 -0.13034149 0.21648724 250 0 0 0.29624104 -2.4238875 -78.305138 0
-11.724707 -0.20103662 0.22612809 250 0 0 0.69384164 -1.7821028 -76.421555 0
-11.743097 -0.33713511 0.23333494 250 0 0 -1.3147684 -2.543088 -73.57962 0
-11.713881 -0.51948023 0.24027017 250 0 0 1.0172415 -3.2319667 -72.31971 0
-11.683266 -0.70275098 0.20256455 250 0 0 -0.51838797 -2.7914872 -75.137375 0
-11.656721 -0.76127774 0.20807524 250 0 0 -2.0191953 -3.6594863 -75.650208 0
-11.676658 -0.88349158 0.19310866 250 0 0 -3.1116762 -4.3604236 -78.345573 0
-11.590992 -1.0498739 0.2083423 250 0 0 -1.5561239 -3.5242109 -79.900146 0
-11.571132 -1.1062495 0.19861242 250 0 0 -1.2212471 -4.048048 -78.897133 0
-11.559649 -1.2299888 0.17669053 250 0 0 0.05364351 -4.5747762 -78.32386 0
-11.536591 -1.4167062 0.17495711 250 0 0 0.37438431 -2.6368423 -75.935936 0
-11.531726 -1.4726754 0.17584033 250 0 0 -0.78867644 -2.0240636 -77.555595 0
-11.504148 -1.5991075 0.20057289 250 0 0 0.8269906 -1.0706538 -79.116524 0
-11.49884 -1.8043182 0.15881515 250 0 0 -1.2095182 -3.2400236 -82.299454 0
-11.464508 -2.0044577 0.1833638 250 0 0 -4.7399545 -1.4117289 -87.058029 0
-11.468946 -2.0716648 0.22431971 250 0 0 -5.1904492 -2.0962486 -88.773468 0
-11.455109 -2.1750383 0.22139692 250 0 0 -4.2635803 -1.5074768 -92.129692 0
-11.439438 -2.3581781 0.21297555 250 0 0 -0.65850842 -1.8188246 -92.512421 0
-11.465138 -2.4303491 0.20867345 250 0 0 -0.38440832 -2.2632983 -92.058212 0
-11.468845 -2.5664098 0.20108092 250 0 0 -2.2340386 -3.3627644 -92.454742 0
-11.483277 -2.7539308 0.21991141 250 0 0 -3.6750064 -3.8769009 -90.977562 0
-11.47471 -2.9473624 0.20060866 250 0 0 -2.0837641 -3.7366514 -89.851936 0
-11.482643 -3.0159519 0.18719193 250 0 0 -2.4457674 -3.8732038 -91.175209 0
-11.477004 -3.1529958 0.1807605 250 0 0 -3.5290895 -5.6656322 -94.742958 0
-11.4412 -3.3447433 0.17642538 250 0 0 -1.8246822 -3.636111 -100.64028 0
-11.450749 -3.4088585 0.17657337 250 0 0 -0.9426294 -3.0191064 -101.02904 0
-11.425385 -3.5399911 0.14065175 250 0 0 -1.2463102 -2.3972652 -100.70902 0
-11.419827 -3.7656517 0.12240528 250 0 0 -2.617331 -3.3795574 -97.736603 0
-11.389338 -3.8336384 0.1270683 250 0 0 -1.506941 -2.4501233 -95.188812 0
-11.403412 -3.9700191 0.13654998 250 0 0 -1.9061979 -2.5245581 -90.630104 0
-11.400471 -4.1785846 0.12405838 250 0 0 1.103816 -2.0056202 -88.640968 0
-11.375515 -4.3820939 0.075125359 250 0 0 -2.4086428 -1.8152165 -93.017952 0
-11.383259 -4.4543467 0.089833871 250 0 0 -2.518064 -1.0169786 -93.862053 0
-11.35022 -4.5777841 0.096658356 250 0 0 -1.7336574 -1.0400678 -97.494141 0
-11.320096 -4.7701716 0.053947981 250 0 0 -0.28810981 -0.97120327 -96.955574 0
-11.311714 -4.8473973 0.054117635 250 0 0 -0.81057656 -1.0300977 -95.874786 0
-11.291447 -4.9942732 0.044264149 250 0 0 -1.4452252 -1.7165606 -94.03656 0
-11.273917 -5.198297 0.060381852 250 0 0 -2.0747018 -3.1827583 -89.208008 0
-11.266592 -5.3968396 0.039732888 250 0 0 -1.0916517 -2.4948523 -88.379753 0
-11.26112 -5.4604015 0.012014641 250 0 0 -1.2630284 -2.3811696 -88.690796 0
-11.259015 -5.5916228 -0.0172478 250 0 0 -3.9666781 -1.6991738 -91.675209 0
-11.250955 -5.7822113 -0.019317111 250 0 0 -3.9535575 -0.13471745 -98.393448 0
-11.240908 -5.8456502 -0.02191606 250 0 0 -2.5500214 0.15596099 -99.43618 0
-11.232 -5.971066 -0.069807597 250 0 0 -2.4155469 1.3673568 -100.71616 0
-11.215319 -6.2030516 -0.083047472 250 0 0 -3.395792 0.3645556 -97.175156 0
-11.228244 -6.4064102 -0.058510691 250 0 0 -2.3128839 -0.57631856 -92.972397 0
-11.21198 -6.4603467 -0.066558748 250 0 0 -0.83226895 -0.3870393 -92.544533 0
-11.233931 -6.5908113 -0.071606591 250 0 0 -0.37605149 -0.6362834 -91.201126 0
-11.251398 -6.7915978 -0.13137847 250 0 0 -3.9814639 -1.3878173 -94.335762 0
-11.210277 -6.8673992 -0.12935652 250 0 0 -4.4227757 -1.5832006 -96.3741 0
-11.244679 -6.999238 -0.12315121 250 0 0 -4.2970157 -2.3028219 -100.92705 0
-11.233782 -7.194839 -0.13222623 250 0 0 -0.48078534 -2.4732177 -101.68389 0
-11.224282 -7.2616935 -0.15348861 250 0 0 0.13275793 -2.4625287 -100.69528 0
-11.262819 -7.409955 -0.2015081 250 0 0 0.92772257 -2.7959385 -97.497147 0
-11.280488 -7.6314397 -0.17152712 250 0 0 -1.5157369 -2.3139114 -92.78009 0
-11.308992 -7.8050814 -0.17482206 250 0 0 0.88768256 -3.204319 -90.066307 0
-11.32849 -7.8657541 -0.20244628 250 0 0 0.31419772 -3.2010596 -90.829559 0
-11.352162 -8.0007448 -0.2208596 250 0 0 -2.0122473 -1.0649821 -93.970505 0
-11.364793 -8.1934986 -0.20386145 250 0 0 -3.5078833 -2.4000742 -97.604561 0
-11.350179 -8.2501249 -0.20349553 250 0 0 -3.7906477 -1.6722106 -98.982834 0
-11.351059 -8.3666639 -0.20115472 250 0 0 -1.7514622 -1.5534019 -98.548737 0
-11.378985 -8.5417442 -0.23172265 250 0 0 -1.4484081 -1.3098475 -95.76757 0
-11.41996 -8.5988131 -0.25267196 250 0 0 -1.8909009 -1.9484688 -94.468086 0
-11.446477 -8.7099791 -0.24896592 250 0 0 -2.0675037 -1.7147908 -92.7313 0
-11.510907 -8.8578987 -0.22336158 250 0 0 -2.0189059 -2.2130871 -93.169693 0
-11.586955 -8.9938507 -0.25837857 250 0 0 -2.3326442 -1.8901937 -95.726295 0
-11.60071 -9.0482693 -0.26191732 250 0 0 -2.8606277 -1.2778807 -97.406952 0
-11.614999 -9.15693 -0.27869168 250 0 0 -3.7661376 -1.0375042 -99.22361 0
-11.646732 -9.3278618 -0.24761082 250 0 0 -4.2095089 -1.5194136 -103.84875 0
-11.65253 -9.3682823 -0.25034496 250 0 0 -2.6482315 -2.33516 -103.66525 0
-11.656893 -9.4487791 -0.27588302 250 0 0 -1.9970635 -1.895599 -103.85953 0
-11.673231 -9.6150808 -0.2957758 250 0 0 -1.379239 -0.66613829 -99.957794 0
-11.689173 -9.7866154 -0.29776543 250 0 0 -1.4976206 -2.0716026 -95.083534 0
-11.725455 -9.8463879 -0.29265264 250 0 0 -1.4352196 -2.4438734 -92.891457 0
-11.736429 -9.944952 -0.29666284 250 0 0 -0.45084685 -2.775955 -91.7332 0
-11.769949 -10.108599 -0.3416602 250 0 0 -1.2495606 -1.6949188 -91.540527 0
-11.777246 -10.175272 -0.35060024 250 0 0 -1.7759652 -1.466236 -92.02195 0
-11.792182 -10.298371 -0.37172449 250 0 0 -5.2077813 -2.967484 -94.504272 0
-11.785692 -10.475391 -0.35832682 250 0 0 -3.9212804 -2.65025 -98.282944 0
-11.78365 -10.529637 -0.36287072 250 0 0 -2.8582222 -1.7320871 -98.567833 0
-11.798987 -10.650943 -0.38740692 250 0 0 -2.0264163 -1.7980497 -98.94912 0
-11.809063 -10.863961 -0.41382354 250 0 0 -2.1337249 -4.1259251 -96.2034 0
-11.878551 -11.0748 -0.40095976 250 0 0 -3.9851935 -6.323936 -90.966553 0
-11.879161 -11.126396 -0.39771986 250 0 0 -3.8683121 -6.6326594 -91.660263 0
-11.887183 -11.249029 -0.39943174 250 0 0 -2.2719796 -6.5399742 -90.573402 0
-11.928314 -11.428367 -0.46647701 250 0 0 -3.727783 -5.5786147 -93.043282 0
-11.919214 -11.49784 -0.47017759 250 0 0 -5.3878307 -5.0734367 -94.363976 0
-11.947405 -11.637089 -0.44509366 250 0 0 -5.1163859 -5.7239318 -95.569405 0
-11.946845 -11.81187 -0.4564859 250 0 0 -2.0185914 -5.0618043 -99.962029 0
-11.936919 -12.000758 -0.50384408 250 0 0 -1.8501377 -4.7905617 -98.134621 0
-11.942304 -12.060505 -0.52711523 250 0 0 -1.7219213 -5.6905117 -96.690697 0
-11.942631 -12.181235 -0.54029894 250 0 0 -1.7897664 -4.6962514 -94.147072 0
-11.972589 -12.348049 -0.55069047 250 0 0 -2.364558 -2.0956206 -93.395485 0
-11.971824 -12.425469 -0.52911425 250 0 0 -1.1902677 -1.4106065 -92.363098 0
-11.99356 -12.550706 -0.57242805 250 0 0 -2.036427 -4.1158924 -92.138039 0
-11.978508 -12.741157 -0.60642815 250 0 0 -4.2307711 -2.7827637 -94.525978 0
-11.989911 -12.806538 -0.59847146 250 0 0 -3.4591422 -2.0323408 -95.225639 0
-11.993298 -12.930895 -0.59894574 250 0 0 -1.8461527 -2.212914 -97.81147 0
-11.996781 -13.123029 -0.63756847 250 0 0 -0.8555631 -1.5920953 -97.274315 0
-11.991832 -13.308279 -0.65930223 250 0 0 -2.3527341 -2.0815754 -96.757408 0
-11.992249 -13.370355 -0.6570673 250 0 0 -2.1172919 -1.2276862 -93.56131 0
-12.008715 -13.501296 -0.65413219 250 0 0 -3.6200736 -1.212257 -92.23938 0
-12.013446 -13.707044 -0.67848748 250 0 0 -1.8628163 -1.6872959 -89.363953 0
-12.027085 -13.773343 -0.70557058 250 0 0 -2.8012676 -2.0379527 -90.657837 0
-11.997388 -13.904568 -0.71403879 250 0 0 -4.7434201 -0.13665134 -93.940071 0
-12.000747 -14.099145 -0.703215 250 0 0 -3.3600299 -0.21397285 -97.970993 0
-11.998071 -14.299411 -0.7283625 250 0 0 -2.5517745 -0.32890624 -97.774796 0
-12.008924 -14.367913 -0.74515623 250 0 0 -2.5316336 -1.589672 -96.770889 0
-11.99841 -14.504565 -0.74118531 250 0 0 -2.8978612 -0.39543003 -95.794632 0
-12.017924 -14.69816 -0.73096102 250 0 0 -2.3717248 -1.5420491 -93.523254 0
-12.022287 -14.77322 -0.72428262 250 0 0 -1.7780401 -1.4902086 -92.648598 0
-12.035795 -14.899257 -0.77676606 250 0 0 -2.4170864 -3.2290733 -91.844719 0
-12.030226 -15.113024 -0.79019147 250 0 0 -3.7835853 -0.80345672 -96.156868 0
-12.050836 -15.181544 -0.7909922 250 0 0 -3.91623 -0.74077523 -96.93869 0
-12.041158 -15.301579 -0.79057568 250 0 0 -3.4493051 -0.20107004 -99.435028 0
-12.026805 -15.525096 -0.8160907 250 0 0 -3.2626355 -1.0752932 -96.036949 0
-12.006832 -15.715265 -0.8390798 250 0 0 -3.8324778 -1.4139134 -86.264015 0
-12.011379 -15.812144 -0.8410123 250 0 0 -5.7387452 -1.6049849 -83.061279 0
-11.991185 -15.925148 -0.85417569 250 0 0 -4.5594764 0.34799224 -80.197723 0
-11.969849 -16.142315 -0.9139905 250 0 0 -4.9115176 -0.94222802 -77.195763 0
-11.950158 -16.213516 -0.9132812 250 0 0 -5.1675534 -0.72536534 -77.497345 0
-11.901878 -16.333725 -0.91326565 250 0 0 -4.7555513 -0.67376417 -76.089272 0
-11.828889 -16.510452 -0.90024167 250 0 0 -2.0554645 -0.68444645 -73.49353 0
-11.813488 -16.576994 -0.91795331 250 0 0 -1.4780382 -1.2869699 -72.164993 0
-11.739 -16.722504 -0.94838929 250 0 0 0.395089 -1.011585 -69.030457 0
-11.62431 -16.888086 -0.97230983 250 0 0 1.2625064 -2.7278371 -59.550556 0
-11.542464 -17.062952 -0.99137247 250 0 0 -0.45232981 -0.19757025 -55.110622 0
-11.502662 -17.203747 -0.9921236 250 0 0 1.4357827 0.28383857 -52.278255 0
-11.438945 -17.327339 -1.0413347 250 0 0 0.6003294 -2.0917156 -50.152073 0
-11.316547 -17.512394 -1.0590802 250 0 0 0.031659372 -2.0517101 -51.323845 0
-11.296379 -17.580679 -1.0662177 250 0 0 -0.79448789 -2.2550926 -52.389008 0
-11.190492 -17.667351 -1.0546808 250 0 0 1.0592829 -1.0105424 -53.458946 0
-11.059672 -17.828838 -1.1248232 250 0 0 2.0841172 -1.0374148 -50.557636 0
-10.919066 -18.004831 -1.1519309 250 0 0 0.028627014 -2.3413265 -46.314602 0
-10.90609 -18.098286 -1.1619711 250 0 0 -0.64193374 -1.9945755 -43.73082 0
-10.809542 -18.192823 -1.1478767 250 0 0 0.77651316 -1.3194432 -43.323429 0
-10.684951 -18.394466 -1.207844 250 0 0 2.0765238 -3.0035801 -43.24387 0
-10.636608 -18.461742 -1.2121899 250 0 0 1.6136237 -2.7174926 -45.075989 0
-10.524695 -18.549898 -1.2109667 250 0 0 2.0044591 -2.602005 -46.99197 0
-10.391638 -18.697906 -1.2200189 250 0 0 3.2024009 -1.2055699 -50.253727 0
-10.23413 -18.848604 -1.2457088 250 0 0 4.9902563 -0.3294307 -48.628963 0
-10.18414 -18.896265 -1.2665118 250 0 0 5.5510044 -1.4684973 -47.235046 0
-10.080838 -19.031065 -1.2773447 250 0 0 5.497674 -1.6974343 -44.05513 0
-9.9374866 -19.175692 -1.2830681 250 0 0 4.9291549 0.18858708 -43.813858 0
-9.8926201 -19.229084 -1.2912365 250 0 0 4.8440151 -0.22857772 -42.725555 0
-9.812398 -19.345617 -1.3512404 250 0 0 3.8449514 0.56997335 -43.896179 0
-9.6316195 -19.502184 -1.3401965 250 0 0 0.74188292 0.95049155 -46.742435 0
-9.5960016 -19.567619 -1.3354844 250 0 0 -0.22993666 -0.62890083 -48.127911 0
-9.4960575 -19.632383 -1.3586494 250 0 0 2.392524 0.88693857 -49.777615 0
-9.3334789 -19.795397 -1.3746946 250 0 0 3.8739357 2.8106995 -47.53944 0
-9.1715574 -19.948587 -1.4034786 250 0 0 3.2037301 -0.059473105 -44.139751 0
-9.1461382 -20.042397 -1.4056959 250 0 0 2.1215162 -0.32861161 -42.707397 0
-9.0438156 -20.099184 -1.3940336 250 0 0 2.5455675 -0.13970384 -42.356285 0
-8.9211493 -20.274406 -1.4676133 250 0 0 2.4979639 -1.206856 -41.05307 0
-8.8734808 -20.338556 -1.4827437 250 0 0 1.1337873 -0.50342846 -42.719879 0
-8.7672157 -20.444332 -1.4927152 250 0 0 -1.579327 -0.03374619 -46.905918 0
-8.620471 -20.573908 -1.4876494 250 0 0 0.6571148 1.7572193 -50.87606 0
-8.4475756 -20.715189 -1.5224117 250 0 0 1.8981832 1.3957417 -49.29454 0
-8.3854532 -20.772015 -1.5263164 250 0 0 2.7423813 0.14397453 -47.864285 0
-8.2787743 -20.868654 -1.5518076 250 0 0 2.7606428 -0.59726191 -45.013035 0
-8.128829 -21.032213 -1.5631303 250 0 0 1.1398382 0.03807012 -42.916874 0
-8.0688953 -21.082436 -1.5610453 250 0 0 2.1507602 -0.036629591 -42.315205 0
-7.9668941 -21.188185 -1.6023837 250 0 0 1.5312331 -1.9752337 -41.544178 0
-7.8062148 -21.320559 -1.6515718 250 0 0 0.065316252 -1.1364985 -44.718624 0
-7.7700672 -21.385511 -1.6555947 250 0 0 -0.51291645 -0.389685 -46.527542 0
-7.6328111 -21.446638 -1.646137 250 0 0 1.5538588 0.82822526 -48.899685 0
-7.4615746 -21.580553 -1.6784236 250 0 0 4.0684552 -1.4171599 -47.328148 0
-7.3008404 -21.752878 -1.6990758 250 0 0 2.3661652 -2.281904 -44.705475 0
-7.263855 -21.840502 -1.6942002 250 0 0 0.90573704 -2.4446559 -43.555691 0
-7.1603069 -21.915398 -1.6965617 250 0 0 1.3460544 -2.2055202 -44.267803 0
-7.0235415 -22.088236 -1.7618943 250 0 0 0.81248236 -1.694791 -44.876854 0
-6.9730163 -22.143177 -1.7798554 250 0 0 -0.29115972 -0.9482078 -46.062298 0
-6.8490477 -22.227104 -1.7737621 250 0 0 -0.58457118 1.0576353 -48.825264 0
-6.6977568 -22.366468 -1.772287 250 0 0 1.5310702 -0.13628501 -50.784874 0
-6.5343242 -22.524212 -1.8056482 250 0 0 3.0253887 -0.81992108 -48.983852 0
-6.4918118 -22.578794 -1.8398248 250 0 0 3.1082907 -2.3150275 -48.138546 0
-6.3733068 -22.675604 -1.8513756 250 0 0 3.2838433 -1.0602578 -46.361561 0
-6.2282548 -22.826674 -1.8427603 250 0 0 2.7408533 -0.92222041 -43.019173 0
-6.1858706 -22.878721 -1.8556105 250 0 0 3.0967407 -1.1757942 -42.099018 0
-6.0974765 -22.978437 -1.9025919 250 0 0 1.745723 -1.5277243 -42.741631 0
-5.9415441 -23.130915 -1.9369708 250 0 0 0.0066028372 -2.1998551 -46.851799 0
-5.8869252 -23.167614 -1.9375846 250 0 0 0.31091717 -1.4148297 -48.681252 0
-5.7703872 -23.242483 -1.9291062 250 0 0 2.8719726 -0.2060502 -49.607765 0
-5.6119547 -23.395447 -1.9825467 250 0 0 4.2442651 0.16264133 -48.206577 0
-5.4439068 -23.553633 -1.9922229 250 0 0 4.7362757 -0.69324929 -46.232491 0
-5.4210944 -23.640675 -1.9899607 250 0 0 2.9404032 -1.0050405 -45.273895 0
-5.3163438 -23.717646 -2.0109448 250 0 0 3.4510937 0.93041968 -46.923416 0
-5.1714897 -23.859806 -2.0757918 250 0 0 1.5468688 0.58288723 -49.007286 0
-5.1101713 -23.909698 -2.0840864 250 0 0 1.8093151 0.9646222 -49.932159 0
-4.9994264 -24.000671 -2.0967631 250 0 0 0.057848629 0.53248423 -52.315746 0
-4.8199983 -24.110886 -2.0985916 250 0 0 1.8510364 2.3571517 -53.245129 0
-4.7695012 -24.153669 -2.1165934 250 0 0 2.5610468 2.2077608 -52.246284 0
-4.6379504 -24.236166 -2.1475787 250 0 0 3.3753498 2.0757542 -48.774162 0
-4.4548049 -24.375996 -2.1863923 250 0 0 1.7731345 1.1777306 -39.859703 0
-4.2519059 -24.481895 -2.1905472 250 0 0 1.4877235 2.1755011 -32.847145 0
-4.1850581 -24.532518 -2.1954167 250 0 0 1.3929188 1.0199081 -29.281931 0
-4.0690131 -24.632601 -2.2512848 250 0 0 0.93447709 -1.0515558 -25.712473 0
-3.8511176 -24.735102 -2.2418675 250 0 0 -0.44936168 0.086616457 -26.795059 0
-3.7832148 -24.744907 -2.2500372 250 0 0 0.60403341 0.38649103 -27.348639 0
-3.6369596 -24.788555 -2.2425561 250 0 0 3.3826067 0.045607861 -25.012703 0
-3.4133005 -24.844044 -2.2873867 250 0 0 5.0021968 -1.5823374 -17.818226 0
-3.1789682 -24.895004 -2.2705283 250 0 0 3.4150348 -2.0381167 -5.9971614 0
-3.1029472 -24.891512 -2.2635541 250 0 0 1.8598924 -3.2155776 -3.4461784 0
-2.9624538 -24.903591 -2.269613 250 0 0 4.7529616 -2.7383022 2.8117716 0
-2.7310197 -24.922953 -2.333343 250 0 0 4.2373643 -3.0435228 6.7761168 0
-2.6537449 -24.906824 -2.3188558 250 0 0 3.1037233 -2.0684509 7.0735998 0
-2.5080585 -24.90649 -2.3186791 250 0 0 2.5589342 -1.5796245 8.4608727 0
-2.2941453 -24.876257 -2.3146181 250 0 0 4.1733856 -1.9986479 11.28094 0
-2.2225301 -24.861961 -2.3309257 250 0 0 4.7445745 -2.0864666 12.855045 0
-2.0695326 -24.829916 -2.3352103 250 0 0 5.1840234 -4.1127663 17.296959 0
-1.8267961 -24.80015 -2.3262177 250 0 0 3.5833428 -5.4079585 23.48258 0
-1.6190964 -24.738865 -2.3078134 250 0 0 5.5781112 -6.0868959 27.386021 0
-1.5508356 -24.717232 -2.3299983 250 0 0 6.014513 -7.2731628 28.143089 0
-1.4169911 -24.668831 -2.3600283 250 0 0 4.5023437 -5.9164891 28.115128 0
-1.2138417 -24.593369 -2.346848 250 0 0 2.6201355 -3.3263693 27.631792 0
-1.1473374 -24.55891 -2.3264441 250 0 0 3.4147382 -2.5976527 27.637247 0
-1.0247151 -24.489391 -2.3476393 250 0 0 4.4249339 -4.2607274 29.252941 0
-0.80580121 -24.393078 -2.3568771 250 0 0 5.2395234 -6.8711395 34.32951 0
-0.59834397 -24.303452 -2.3270333 250 0 0 3.6144223 -7.5354333 38.284187 0
-0.5564571 -24.258732 -2.3209646 250 0 0 4.2417436 -6.8390913 38.941635 0
-0.42779192 -24.189682 -2.3062847 250 0 0 4.6997361 -8.3168335 41.08321 0
-0.25052881 -24.056917 -2.3427489 250 0 0 4.0697064 -7.8295193 39.030819 0
-0.20511702 -24.007608 -2.3293223 250 0 0 4.0133028 -7.769011 39.147511 0
-0.081137165 -23.939093 -2.3398509 250 0 0 4.4660344 -7.5157599 37.009701 0
0.077189811 -23.802219 -2.3259559 250 0 0 8.0115728 -5.519526 36.863701 0
0.12732571 -23.747467 -2.333343 250 0 0 8.1602306 -5.8625216 38.312027 0
0.25134051 -23.651903 -2.3525519 250 0 0 7.1714525 -7.5303903 41.491379 0
0.45443344 -23.510099 -2.3227639 250 0 0 5.0096745 -5.4817352 45.808498 0
0.60831714 -23.344921 -2.309689 250 0 0 5.6934409 -7.2810745 46.981216 0
0.66057545 -23.288874 -2.3309429 250 0 0 5.8324828 -8.1556473 47.211197 0
0.77087498 -23.174526 -2.3471634 250 0 0 4.7455311 -7.7064371 45.095306 0
0.90956563 -23.022831 -2.3340781 250 0 0 4.6309257 -5.135076 41.544643 0
0.95133984 -22.97122 -2.3220866 250 0 0 6.488821 -4.0601339 41.557491 0
1.0552214 -22.87513 -2.335283 250 0 0 7.5711613 -4.295795 41.922123 0
1.2445656 -22.719315 -2.348542 250 0 0 7.1052175 -5.2709103 42.65881 0
1.4314883 -22.576984 -2.3048553 250 0 0 4.3757567 -6.9890666 44.012703 0
1.4687389 -22.522558 -2.3019278 250 0 0 5.3610725 -6.5233808 44.444862 0
1.5837787 -22.427521 -2.3140094 250 0 0 5.6262369 -7.3568673 45.545689 0
1.750468 -22.255587 -2.3427739 250 0 0 4.0471826 -4.1590471 43.303211 0
1.8192198 -22.203627 -2.3231456 250 0 0 4.1634555 -3.8394783 42.612011 0
1.9039303 -22.079264 -2.3002353 250 0 0 5.6000695 -2.9752827 38.889492 0
2.0801163 -21.933676 -2.3158906 250 0 0 8.7803431 -4.6769772 39.194229 0
2.2423306 -21.753918 -2.3129647 250 0 0 7.7452826 -3.9550478 41.150787 0
2.3109171 -21.7041 -2.2967167 250 0 0 7.944941 -4.3021235 44.168304 0
2.4333143 -21.602402 -2.2636325 250 0 0 4.7123938 -7.1229148 45.430416 0
2.6056442 -21.434637 -2.2833607 250 0 0 5.2444997 -8.8781958 46.560684 0
2.6718938 -21.383724 -2.315465 250 0 0 4.5361209 -8.2128229 44.69434 0
2.7545054 -21.241396 -2.2920344 250 0 0 4.6458378 -5.8625488 42.033455 0
2.8990049 -21.07563 -2.245039 250 0 0 5.2908874 -5.8957157 40.523125 0
2.9554367 -21.023678 -2.240242 250 0 0 6.842021 -6.5079703 40.160454 0
3.0542939 -20.904167 -2.26688 250 0 0 8.0380182 -6.9211588 40.365181 0
3.2205179 -20.733145 -2.2674599 250 0 0 8.1422281 -8.4798603 44.774494 0
3.3745108 -20.541441 -2.2035999 250 0 0 5.928524 -9.5285692 48.318558 0
3.4395418 -20.482315 -2.1930811 250 0 0 6.3842282 -11.236037 50.06926 0
3.5645328 -20.365797 -2.2684691 250 0 0 5.2334452 -12.429026 49.042301 0
3.7067001 -20.186514 -2.2537673 250 0 0 5.3583708 -10.463026 43.858055 0
3.7450209 -20.127611 -2.2355974 250 0 0 6.2671189 -9.2621527 42.864552 0
3.852459 -20.030827 -2.2445652 250 0 0 8.5710993 -10.145536 40.899837 0
3.970978 -19.848248 -2.2747395 250 0 0 9.9081535 -6.5443282 40.223324 0
4.0393658 -19.797287 -2.2844653 250 0 0 8.6793957 -6.6871338 41.486237 0
4.1703067 -19.694233 -2.2509403 250 0 0 6.837914 -7.0898204 42.448353 0
4.3120828 -19.531837 -2.1956458 250 0 0 8.5445919 -9.3163691 43.611885 0
4.4909673 -19.367254 -2.2504678 250 0 0 5.4857306 -10.394967 42.784737 0
4.5416789 -19.304148 -2.2480843 250 0 0 4.1620035 -9.6860819 41.542526 0
4.6576991 -19.205225 -2.2224503 250 0 0 4.0736647 -9.2738457 39.499844 0
4.7993245 -19.053062 -2.2188909 250 0 0 8.0809011 -8.7880707 38.918053 0
4.8497453 -19.004045 -2.2379324 250 0 0 8.749898 -8.1006861 39.028606 0
4.9578428 -18.890575 -2.2302148 250 0 0 9.0344324 -10.640414 41.597759 0
5.1512785 -18.735136 -2.2097127 250 0 0 5.6376171 -11.769796 46.718922 0
5.3042631 -18.568832 -2.1832316 250 0 0 8.1392803 -12.202818 47.422478 0
5.3643837 -18.5119 -2.2165883 250 0 0 7.5920849 -12.804221 47.180737 0
5.4673219 -18.395306 -2.2359936 250 0 0 6.1717129 -12.440909 44.649418 0
5.6206012 -18.241484 -2.223433 250 0 0 5.0250807 -11.102975 39.568584 0
5.662941 -18.188965 -2.1940949 250 0 0 7.2325931 -10.289433 38.889 0
5.7547498 -18.092752 -2.1888101 250 0 0 8.7755079 -12.213272 37.607063 0
5.9002938 -17.939528 -2.2042131 250 0 0 8.8519049 -14.173175 40.051788 0
5.9280715 -17.876883 -2.1791143 250 0 0 9.0758076 -14.777761 41.7006 0
6.078589 -17.776472 -2.1524093 250 0 0 6.8032818 -16.274223 43.887867 0
6.200645 -17.625839 -2.1521723 250 0 0 6.7706485 -18.201128 46.609585 0
6.3783531 -17.466763 -2.2086816 250 0 0 3.6913078 -15.43959 45.030468 0
6.4115562 -17.396769 -2.2020013 250 0 0 3.4919307 -14.489135 44.449413 0
6.5171933 -17.304607 -2.1795702 250 0 0 2.9706869 -12.755435 43.16959 0
6.6524897 -17.147516 -2.1852663 250 0 0 7.1035213 -10.899372 41.176117 0
6.6978054 -17.085976 -2.1916547 250 0 0 7.5863171 -10.489707 41.799782 0
6.8184047 -16.973579 -2.2038791 250 0 0 8.1211843 -11.890752 43.442822 0
7.0034862 -16.817434 -2.1457243 250 0 0 6.3113608 -13.598147 45.454109 0
7.148356 -16.661032 -2.1360035 250 0 0 7.1073203 -13.747819 46.754826 0
7.2131166 -16.615253 -2.1627603 250 0 0 6.7016225 -14.108649 46.743931 0
7.3012128 -16.48885 -2.1822574 250 0 0 5.273303 -12.103927 44.675636 0
7.4687362 -16.350082 -2.1620545 250 0 0 5.4968705 -10.678586 42.318218 0
7.5281878 -16.304876 -2.1521196 250 0 0 7.7403393 -8.7962093 41.675415 0
7.6337833 -16.185572 -2.1535566 250 0 0 8.2632627 -8.9081306 40.517338 0
7.807796 -16.010344 -2.1482203 250 0 0 7.9655147 -11.383046 44.767025 0
7.870007 -15.961659 -2.149138 250 0 0 7.3042173 -11.709205 46.854553 0
7.9958596 -15.867938 -2.1289322 250 0 0 6.5567541 -11.559182 46.96579 0
8.1446762 -15.708408 -2.1205955 250 0 0 7.0689692 -13.132249 49.410725 0
8.2995338 -15.546251 -2.1402102 250 0 0 5.0079665 -12.417774 48.375343 0
8.3584747 -15.497137 -2.1311152 250 0 0 3.9289351 -12.386343 48.338459 0
8.4409895 -15.389704 -2.1221352 250 0 0 5.5456357 -10.790493 46.265129 0
8.548584 -15.201679 -2.1214547 250 0 0 7.6683278 -10.926229 48.506031 0
8.6628151 -15.001568 -2.120739 250 0 0 6.9005394 -14.004993 55.47961 0
8.7151289 -14.947806 -2.1191893 250 0 0 6.6173258 -13.579979 59.228775 0
8.7751989 -14.827926 -2.1016002 250 0 0 4.2962623 -13.453688 64.202087 0
8.8914251 -14.632067 -2.1042683 250 0 0 3.0924969 -13.768289 70.91729 0
8.9406939 -14.568251 -2.1214938 250 0 0 2.991257 -13.615383 70.927315 0
8.9853668 -14.430506 -2.1165037 250 0 0 3.095794 -10.872613 69.965309 0
9.0366764 -14.228058 -2.0686929 250 0 0 3.0712144 -10.031919 70.478783 0
9.060174 -14.157764 -2.0540245 250 0 0 3.5240474 -10.574163 72.342644 0
9.0950327 -14.012031 -2.0823901 250 0 0 3.972368 -12.230897 76.381996 0
9.125165 -13.791111 -2.0817924 250 0 0 2.0105956 -14.062939 83.102669 0
9.1564894 -13.590649 -2.0216467 250 0 0 0.48291895 -12.496562 91.664215 0
9.1602116 -13.522119 -2.010361 250 0 0 1.0715705 -12.936584 95.115295 0
9.1882191 -13.367422 -2.03282 250 0 0 0.46243268 -14.390701 98.953079 0
9.1992311 -13.141407 -2.0174665 250 0 0 -1.0443197 -11.717307 100.27563 0
9.2164564 -13.057179 -2.0013835 250 0 0 -2.4226096 -12.322279 99.528625 0
9.1914387 -12.918202 -1.9780327 250 0 0 1.2942692 -10.767645 98.67012 0
9.1659117 -12.699565 -1.9864991 250 0 0 2.6474063 -13.484646 103.1031 0
9.1654119 -12.464249 -1.9872129 250 0 0 0.92717141 -15.766912 109.72684 0
9.2008333 -12.375434 -1.9642522 250 0 0 -1.2082721 -15.196672 111.51874 0
9.1492071 -12.232382 -1.9397374 250 0 0 -1.398839 -13.873087 112.43041 0
9.1244812 -11.990726 -1.9414226 250 0 0 -1.0460026 -16.134001 115.70267 0
9.1099596 -11.912426 -1.9451367 250 0 0 -0.87658447 -14.886425 115.22 0
9.0820808 -11.756145 -1.893625 250 0 0 -2.5777082 -14.419 115.48894 0
8.98384 -11.514896 -1.8526795 250 0 0 0.87207562 -12.989431 113.3923 0
8.9265337 -11.304267 -1.8479373 250 0 0 2.5419288 -14.545879 118.5424 0
8.9012976 -11.236897 -1.8327384 250 0 0 1.840086 -15.140122 120.36786 0
8.8656836 -11.099623 -1.7946475 250 0 0 -2.1050611 -14.809518 127.41985 0
8.8057747 -10.872999 -1.7193754 250 0 0 -3.4648969 -13.384511 129.47581 0
8.7861223 -10.803917 -1.6878657 250 0 0 -3.6160429 -14.177286 130.61449 0
8.7467899 -10.640768 -1.6984943 250 0 0 -3.569689 -16.896772 130.61655 0
8.6745605 -10.435612 -1.6712358 250 0 0 -3.6135435 -15.88693 127.88758 0
8.6769953 -10.353882 -1.6506819 250 0 0 -4.4409308 -16.101858 126.58195 0
8.6098318 -10.245631 -1.6486279 250 0 0 -1.0902717 -13.625401 124.09249 0
8.503335 -10.058394 -1.6199951 250 0 0 0.99647135 -15.747128 127.74763 0
8.4358597 -9.8564863 -1.6134131 250 0 0 -1.1576941 -15.675466 131.14491 0
8.4356785 -9.774848 -1.5788817 250 0 0 -2.5118787 -15.191936 132.96678 0
8.3796768 -9.6559877 -1.5515018 250 0 0 -1.6540328 -15.118389 133.425 0
8.3056612 -9.4485922 -1.5435106 250 0 0 -0.92391831 -17.174345 133.57765 0
8.2915945 -9.3737841 -1.5494788 250 0 0 -0.65044636 -16.673513 132.9921 0
8.2313786 -9.2471313 -1.5206407 250 0 0 -2.3754847 -16.265965 130.87325 0
8.1339731 -9.0662537 -1.4852871 250 0 0 1.9886403 -14.153715 125.77125 0
8.0977831 -8.9983711 -1.4717137 250 0 0 2.7660248 -14.482939 125.7675 0
8.0024891 -8.8906517 -1.4679881 250 0 0 4.1675463 -15.275835 128.21606 0
7.9096551 -8.6563616 -1.4490345 250 0 0 0.23960903 -16.465246 132.41574 0
7.8091774 -8.4724436 -1.3956507 250 0 0 -0.12352541 -15.298495 133.21466 0
7.7759743 -8.40343 -1.3849876 250 0 0 0.32068729 -15.642775 133.65631 0
7.69521 -8.2754774 -1.3883501 250 0 0 2.207154 -15.962785 132.7496 0
7.5805726 -8.0918179 -1.3514104 250 0 0 0.21849822 -16.506046 131.18663 0
7.546947 -8.0412111 -1.3583529 250 0 0 -0.54213876 -16.198547 129.14354 0
7.4546633 -7.9417963 -1.3288749 250 0 0 2.8619382 -14.591532 128.09174 0
7.3107138 -7.7680831 -1.3149486 250 0 0 3.9621928 -16.291388 129.4319 0
7.2000136 -7.5769253 -1.2897445 250 0 0 0.65548098 -15.59496 134.36244 0
7.1578369 -7.5207863 -1.2748673 250 0 0 -1.2533711 -15.993783 134.01344 0
7.0588961 -7.423532 -1.2478081 250 0 0 0.32003939 -14.633327 135.27843 0
6.9205422 -7.2448277 -1.2508886 250 0 0 0.92789054 -16.282812 134.3983 0
6.8746963 -7.1886487 -1.2450755 250 0 0 0.016734863 -15.364095 133.48982 0
6.780972 -7.0810347 -1.2064763 250 0 0 -0.15994786 -15.306721 131.96552 0
6.6301184 -6.9379559 -1.1888742 250 0 0 2.6436253 -15.601808 130.15633 0
6.5724916 -6.8967853 -1.1957768 250 0 0 3.689903 -15.276173 130.24727 0
6.4793434 -6.7695565 -1.191505 250 0 0 2.7848346 -16.460873 133.36101 0
6.3557925 -6.5894885 -1.1435821 250 0 0 -0.47399881 -15.818963 136.35272 0
6.2186003 -6.4373455 -1.1134715 250 0 0 0.84249318 -14.575255 136.03043 0
6.1724091 -6.3755403 -1.1127394 250 0 0 0.90962237 -15.010652 135.58118 0
0 0 0 1 0 0 0 1 0 0 0 1 0 0 0 0 0 525 1 0 0
