ply
format ascii 1.0
comment PCL generated
element vertex 100
property float x
property float y
property float z
property uchar red
property uchar green
property uchar blue
property float nx
property float ny
property float nz
property float curvature
element camera 1
property float view_px
property float view_py
property float view_pz
property float x_axisx
property float x_axisy
property float x_axisz
property float y_axisx
property float y_axisy
property float y_axisz
property float z_axisx
property float z_axisy
property float z_axisz
property float focal
property float scalex
property float scaley
property float centerx
property float centery
property int viewportx
property int viewporty
property float k1
property float k2
end_header
243.01442 184.03401 0.52481872 250 0 0 3.6659248 -3.6234775 38.237759 0
243.01645 184.03535 0.53468782 250 0 0 4.0293298 -3.2642238 38.489155 0
243.01611 184.03772 0.52704769 250 0 0 3.8499184 -3.1812029 38.616421 0
243.0195 184.04314 0.5273459 250 0 0 3.7669785 -2.4982696 38.770748 0
243.02663 184.05247 0.53214461 250 0 0 3.9036462 -2.16784 39.077698 0
243.03201 184.05803 0.53403038 250 0 0 3.722141 -2.2134607 39.357994 0
243.03745 184.07515 0.53390288 250 0 0 3.5285611 -2.0440302 39.77243 0
243.04276 184.08455 0.53162247 250 0 0 3.3489008 -2.1151993 39.871479 0
243.05292 184.10796 0.52381814 250 0 0 3.4060147 -2.1154745 39.765682 0
243.06082 184.12143 0.51898605 250 0 0 3.6423388 -1.9216969 39.232498 0
243.09489 184.14494 0.52638149 250 0 0 3.776783 -1.8132761 38.769806 0
243.08913 184.16594 0.51533473 250 0 0 3.3971627 -1.752165 38.63205 0
243.13138 184.1953 0.51467156 250 0 0 3.749557 -0.9838286 38.35989 0
243.15959 184.21112 0.51153731 250 0 0 3.7643435 -0.70821637 38.699062 0
243.22105 184.245 0.51580006 250 0 0 4.083714 -0.82514799 39.170712 0
243.25066 184.26331 0.51766288 250 0 0 4.5076065 -1.2502316 39.995697 0
243.31834 184.30243 0.51056081 250 0 0 4.9886365 -0.60464853 41.271908 0
243.36848 184.319 0.52507704 250 0 0 5.2972622 -0.56129402 42.010361 0
243.4231 184.36913 0.52438027 250 0 0 5.1393619 -1.1057761 44.251972 0
243.48653 184.38849 0.52019572 250 0 0 4.7305675 -1.074752 44.791454 0
243.52792 184.44437 0.50780529 250 0 0 3.9624891 -0.64356601 45.089157 0
243.5779 184.47099 0.5070129 250 0 0 3.9701414 -0.52044076 45.247925 0
243.65211 184.53526 0.49679199 250 0 0 3.6199884 -0.68364048 44.950375 0
243.69453 184.56871 0.49268478 250 0 0 3.514678 -0.76854783 44.676277 0
243.78757 184.63968 0.51513118 250 0 0 5.2395992 -0.52802539 43.705292 0
243.83379 184.67453 0.50210351 250 0 0 4.6032801 -1.2853711 43.464111 0
243.91707 184.74533 0.51189196 250 0 0 4.6274567 -1.2932981 42.398308 0
243.95842 184.78131 0.51194888 250 0 0 5.2131677 -1.6837181 42.632915 0
244.08234 184.85316 0.49927175 250 0 0 4.9799962 -2.6075587 43.002922 0
244.12056 184.89308 0.48272058 250 0 0 4.7692885 -2.7462089 43.478916 0
244.26917 184.96486 0.50701153 250 0 0 4.8289914 -1.7673398 44.385185 0
244.32062 185.00612 0.50993222 250 0 0 4.1323414 -1.9677577 45.08884 0
244.44247 185.08356 0.51677984 250 0 0 3.1974373 -2.2090042 45.351192 0
244.50041 185.125 0.51909161 250 0 0 3.12133 -2.5419014 45.381325 0
244.62793 185.21141 0.5067029 250 0 0 3.002876 -4.2650151 45.203011 0
244.68744 185.25595 0.49461758 250 0 0 2.7238998 -5.0104485 44.313519 0
244.77528 185.34326 0.49767768 250 0 0 3.5943403 -4.6830072 43.44492 0
244.82814 185.3858 0.49058259 250 0 0 3.4277015 -3.9431062 43.759384 0
244.9429 185.46489 0.51429248 250 0 0 4.0370469 -3.5653584 43.895714 0
245.01331 185.50546 0.51362783 250 0 0 4.2894034 -4.0045376 44.373852 0
245.1575 185.58295 0.49776927 250 0 0 4.1542921 -5.0907297 44.860138 0
245.1693 185.62634 0.48851794 250 0 0 4.2545757 -5.5604072 44.318657 0
245.29497 185.70598 0.49414194 250 0 0 5.0021105 -5.1276231 44.470387 0
245.42052 185.78806 0.50858158 250 0 0 4.7067866 -3.3148689 45.217644 0
245.47449 185.83279 0.489694 250 0 0 3.9583738 -2.7651505 45.772209 0
245.61513 185.92563 0.48098713 250 0 0 3.5945699 -1.588499 45.379417 0
245.68478 185.97279 0.48557201 250 0 0 3.6092088 -2.4329848 45.158451 0
245.7117 186.08109 0.47232297 250 0 0 3.8576078 -4.3926964 43.255409 0
245.83864 186.11754 0.4668768 250 0 0 4.399745 -4.1451888 43.666378 0
245.94714 186.21259 0.49620241 250 0 0 4.0170236 -2.1335411 43.357731 0
245.98857 186.26227 0.51316255 250 0 0 3.452002 -2.1606686 43.120193 0
246.10567 186.35529 0.51113194 250 0 0 3.8269842 -2.8147352 43.370998 0
246.16687 186.40033 0.51037824 250 0 0 3.9657154 -3.2968862 43.561745 0
246.28491 186.49634 0.50002033 250 0 0 3.5292959 -4.6001062 44.2663 0
246.30682 186.54616 0.49448434 250 0 0 4.1146941 -4.1725464 43.491646 0
246.45061 186.62462 0.52113342 250 0 0 3.2942345 -2.6844754 43.938808 0
246.50256 186.67633 0.52488303 250 0 0 3.1559091 -2.833096 43.95359 0
246.62454 186.77246 0.52796656 250 0 0 3.3466604 -4.0481305 43.93536 0
246.69708 186.80928 0.52852052 250 0 0 2.9185996 -4.7469954 43.754593 0
246.7511 186.90747 0.5314979 250 0 0 3.8868308 -5.5879865 42.387573 0
246.7627 186.95695 0.52837944 250 0 0 3.5576601 -4.4992385 42.689419 0
246.95325 187.05354 0.55189437 250 0 0 3.5616298 -2.8655412 41.643974 0
247.03467 187.09407 0.5498721 250 0 0 3.5623863 -3.7101736 42.406986 0
247.19913 187.17064 0.55191237 250 0 0 4.0682521 -6.1605268 42.718918 0
247.20847 187.22028 0.53485531 250 0 0 3.4925492 -7.2381287 43.551666 0
247.29575 187.32228 0.54609746 250 0 0 3.5807524 -5.2997627 43.952892 0
247.3791 187.36827 0.55616611 250 0 0 2.740258 -4.8515053 44.525669 0
247.49846 187.46773 0.56112081 250 0 0 2.9804184 -4.8507862 45.126534 0
247.54163 187.52136 0.55030859 250 0 0 3.0321488 -5.1652651 44.942692 0
247.60478 187.62836 0.53073889 250 0 0 4.0589514 -5.1126781 43.570652 0
247.74371 187.72583 0.53887475 250 0 0 5.0946488 -3.8279197 43.149586 0
247.8085 187.76381 0.55295944 250 0 0 5.3291435 -2.9744058 43.146664 0
247.91878 187.84189 0.55884272 250 0 0 5.605443 -3.4110537 43.245762 0
247.98061 187.88141 0.55368161 250 0 0 5.604095 -3.6241941 43.692257 0
248.08852 187.964 0.54012126 250 0 0 5.5398121 -4.7982464 44.698788 0
248.12872 188.00716 0.5305078 250 0 0 5.6920381 -4.1694083 44.939941 0
248.216 188.09743 0.53610301 250 0 0 5.7045336 -2.9627049 46.766037 0
248.26817 188.13698 0.55211198 250 0 0 4.9986382 -2.5128703 47.891796 0
248.355 188.20683 0.53615332 250 0 0 4.5221877 -1.2450809 47.81105 0
248.40372 188.25002 0.53998935 250 0 0 4.3693585 -1.2084545 47.663479 0
248.50743 188.33379 0.5324648 250 0 0 4.136549 -3.8175871 46.895611 0
248.48686 188.40207 0.47874716 250 0 0 4.6566644 -4.5680203 45.898373 0
248.65413 188.48239 0.48829713 250 0 0 5.4345894 -4.3330369 45.80022 0
248.71255 188.51631 0.48935848 250 0 0 4.9884672 -3.4447315 45.319191 0
248.80463 188.61615 0.53319037 250 0 0 5.5076394 -4.0488868 45.096272 0
248.85074 188.66594 0.5294711 250 0 0 5.8523965 -4.9551144 46.101532 0
248.90942 188.76508 0.57688969 250 0 0 5.7864232 -8.5021629 49.578178 0
248.97639 188.79012 0.43255287 250 0 0 6.1009722 -7.3352346 52.203148 0
249.06714 188.87927 0.53506839 250 0 0 6.9661875 -4.6867576 54.444286 0
249.12018 188.91336 0.52575403 250 0 0 5.8316321 -4.7891016 55.205879 0
249.19519 188.99895 0.50591451 250 0 0 5.5718913 -3.5550125 55.297752 0
249.23775 189.04483 0.51786268 250 0 0 5.4620943 -2.4316468 54.915195 0
249.27815 189.16011 0.5432539 250 0 0 5.7311878 -2.5220919 55.603626 0
249.31445 189.20193 0.54961532 250 0 0 5.5407257 -3.0787573 56.117111 0
249.34381 189.31514 0.55817491 250 0 0 5.5818219 -1.9125051 57.910473 0
249.35043 189.3842 0.56982225 250 0 0 4.73911 -2.3410816 61.000122 0
249.38571 189.48961 0.55406159 250 0 0 4.0992246 -2.8937662 67.310852 0
249.40424 189.54437 0.553159 250 0 0 3.9405124 -2.7007029 70.293297 0
249.43124 189.65265 0.54968339 250 0 0 3.360543 -2.2627673 76.709137 0
249.42635 189.71146 0.56339258 250 0 0 3.1625741 -2.0661607 80.652916 0
0 0 0 1 0 0 0 1 0 0 0 1 0 0 0 0 0 100 1 0 0
