ply
format ascii 1.0
comment PCL generated
element vertex 651
property float x
property float y
property float z
property uchar red
property uchar green
property uchar blue
property float nx
property float ny
property float nz
property float curvature
element camera 0
property float view_px
property float view_py
property float view_pz
property float x_axisx
property float x_axisy
property float x_axisz
property float y_axisx
property float y_axisy
property float y_axisz
property float z_axisx
property float z_axisy
property float z_axisz
property float focal
property float scalex
property float scaley
property float centerx
property float centery
property int viewportx
property int viewporty
property float k1
property float k2
end_header
5.0500507 -0.084539779 0.019872127 250 0 0 3.5623863 -3.7101736 27.406986 0
5.226584 -0.12634124 0.021912366 250 0 0 4.0682521 -6.1605268 27.718916 0
5.264667 -0.093162782 0.0048553064 250 0 0 3.4925492 -7.2381287 28.551666 0
5.3963819 -0.067161649 0.016097479 250 0 0 3.5807524 -5.2997627 28.95289 0
5.4903002 -0.082709573 0.026166096 250 0 0 2.740258 -4.8515053 29.525669 0
5.6456127 -0.078587808 0.031120813 250 0 0 2.9804184 -4.8507862 30.126532 0
5.7127323 -0.063233405 0.020308556 250 0 0 3.0321488 -5.1652651 29.942694 0
5.8285851 -0.018372709 0.00073886249 250 0 0 4.0589514 -5.1126781 28.570652 0
5.998033 -0.027953587 0.0088747377 250 0 0 5.0946488 -3.8279197 28.149586 0
6.0724144 -0.038279787 0.022959417 250 0 0 5.3291435 -2.9744058 28.146664 0
6.2073565 -0.045309767 0.028842719 250 0 0 5.605443 -3.4110537 28.245762 0
6.2803645 -0.052591603 0.023681637 250 0 0 5.604095 -3.6241941 28.692257 0
6.4162493 -0.054610904 0.010121253 250 0 0 5.5398121 -4.7982464 29.698786 0
6.4745445 -0.045656852 0.00050779188 250 0 0 5.6920381 -4.1694083 29.939941 0
6.5989819 -0.028877817 0.006103009 250 0 0 5.7045336 -2.9627049 31.766035 0
6.6644382 -0.030142866 0.02211201 250 0 0 4.9986382 -2.5128703 32.891796 0
6.7758665 -0.029113697 0.0061533125 250 0 0 4.5221877 -1.2450809 32.81105 0
6.8408723 -0.025402633 0.0099893361 250 0 0 4.3693585 -1.2084545 32.663479 0
6.9741764 -0.023891177 0.0024647827 250 0 0 4.136549 -3.8175871 31.895611 0
7.0003452 0.042441618 -0.051252849 250 0 0 4.6566644 -4.5680203 30.898373 0
7.1813974 0.0018590516 -0.041702878 250 0 0 5.4345894 -4.3330369 30.80022 0
7.2482753 -0.0077236197 -0.040641513 250 0 0 4.9884672 -3.4447315 30.319193 0
7.3824029 0.013608975 0.00319034 250 0 0 5.5076394 -4.0488868 30.09627 0
7.4494457 0.024118686 -0.00052888278 250 0 0 5.8523965 -4.9551144 31.101532 0
7.5569324 0.065583475 0.04688967 250 0 0 5.7864232 -8.5021629 34.578178 0
7.6250072 0.043745171 -0.097447135 250 0 0 6.1009722 -7.3352346 37.203148 0
7.7514811 0.057505157 0.0050684107 250 0 0 6.9661875 -4.6867576 39.444286 0
7.8142357 0.051396158 -0.004245948 250 0 0 5.8316321 -4.7891016 40.205879 0
7.9261446 0.072101176 -0.024085505 250 0 0 5.5718913 -3.5550125 40.297752 0
7.9879661 0.081754901 -0.01213732 250 0 0 5.4620943 -2.4316468 39.915195 0
8.0911207 0.14721066 0.013253907 250 0 0 5.7311878 -2.5220919 40.603626 0
8.1455173 0.15755011 0.019615341 250 0 0 5.5407257 -3.0787573 41.117111 0
8.2386999 0.22822753 0.028174931 250 0 0 5.5818219 -1.9125051 42.910473 0
8.2866945 0.2783291 0.03982228 250 0 0 4.73911 -2.3410816 46.000122 0
8.3796864 0.33920634 0.024061583 250 0 0 4.0992246 -2.8937662 52.310852 0
8.4281569 0.37071687 0.023158997 250 0 0 3.9405124 -2.7007029 55.293301 0
8.5164375 0.43898839 0.019683378 250 0 0 3.360543 -2.2627673 61.709137 0
8.5490284 0.48817411 0.033392604 250 0 0 3.1625741 -2.0661607 65.652916 0
8.6338882 0.54790556 0.030561609 250 0 0 2.1815171 -1.5684141 74.229622 0
8.6983366 0.6210506 0.031982023 250 0 0 1.7299763 -1.2536012 81.084541 0
8.7246361 0.66169226 0.026719421 250 0 0 1.7232932 -0.84078079 84.355019 0
8.7798681 0.7454052 0.034987796 250 0 0 0.69897753 -1.0253754 90.355698 0
8.7926435 0.78999674 0.021672264 250 0 0 0.81732416 -0.82494563 93.732277 0
8.857645 0.85441315 0.041966267 250 0 0 0.41782358 -1.0018271 98.84227 0
8.8776588 0.88808995 0.028511696 250 0 0 0.62546837 0.074676283 101.14762 0
8.9207649 0.97303993 0.056774233 250 0 0 1.5858794 0.51777208 104.34963 0
8.9467564 1.0134032 0.059578773 250 0 0 1.9251003 0.25255638 106.18417 0
8.9916868 1.0993423 0.053808369 250 0 0 2.3267627 -0.15283333 109.09756 0
9.0127325 1.1344107 0.039947011 250 0 0 2.0788743 -0.2272228 110.68345 0
9.052949 1.227394 0.047582317 250 0 0 3.8004053 0.48533553 112.62868 0
9.0603371 1.2651082 0.049679071 250 0 0 3.6826723 0.53525561 113.78305 0
9.0945873 1.3546724 0.049320769 250 0 0 3.5872443 0.8121106 115.64801 0
9.1006088 1.4021287 0.047616959 250 0 0 3.8701003 0.93825448 116.24354 0
9.1332331 1.496145 0.050848797 250 0 0 4.2123189 0.27464336 116.44301 0
9.1127329 1.5334139 0.042428538 250 0 0 4.0951943 0.14048094 116.44154 0
9.120924 1.6133184 0.050063699 250 0 0 4.2097816 -0.9152413 116.63123 0
9.1316109 1.6491388 0.060483359 250 0 0 4.630579 -0.79118299 116.59885 0
9.1248999 1.7251689 0.057311818 250 0 0 4.7325945 -1.0993568 116.55421 0
9.1283159 1.7675886 0.064293295 250 0 0 4.5984969 -0.90692657 116.62663 0
9.1328049 1.8637357 0.063130215 250 0 0 5.1726222 -1.3301243 117.32174 0
9.1379223 1.9126796 0.058314204 250 0 0 4.9869261 -1.7539139 117.66 0
9.1459217 2.010572 0.058701158 250 0 0 5.2750716 -1.235917 117.73694 0
9.1749582 2.0543752 0.072358593 250 0 0 5.4258795 -1.8071275 118.30588 0
9.1833305 2.1464801 0.067231767 250 0 0 4.482388 -1.486045 119.67322 0
9.1877947 2.1975527 0.068020113 250 0 0 4.1636457 -1.6833767 119.88866 0
9.1943712 2.2988682 0.061303709 250 0 0 3.9261513 -0.96914899 120.17822 0
9.1933584 2.3546782 0.062641434 250 0 0 4.0400276 -1.0636921 119.62521 0
9.1982269 2.4727502 0.061520915 250 0 0 4.7271671 -2.0208204 119.23246 0
9.1841545 2.5218284 0.077521674 250 0 0 5.33887 -1.9544683 118.6265 0
9.1731148 2.6237304 0.091995426 250 0 0 5.0748973 -2.4148378 118.91988 0
9.1655569 2.6766834 0.10702305 250 0 0 4.7759929 -2.5329101 118.47117 0
9.1522856 2.7823925 0.085959867 250 0 0 5.0859237 -2.8391049 119.02191 0
9.1392069 2.8748138 0.11051911 250 0 0 5.808949 -2.9273224 118.3672 0
9.1685581 2.9493992 0.064604312 250 0 0 5.5420494 -3.3029814 119.00099 0
9.1398363 3.0512602 0.093296424 250 0 0 5.2713614 -2.7149408 119.19395 0
9.1396255 3.1075437 0.11642365 250 0 0 4.7753196 -1.6745797 119.4833 0
9.1387844 3.2151952 0.12569015 250 0 0 3.1155586 -2.3769147 119.98797 0
9.1292734 3.2848527 0.11277106 250 0 0 2.8014474 -2.3627877 120.00182 0
9.1259327 3.4102795 0.11382114 250 0 0 3.078079 -3.1744862 119.02178 0
9.1152754 3.4401798 0.10666909 250 0 0 2.559891 -3.6134858 117.72868 0
9.0924463 3.5641851 0.1114903 250 0 0 3.1184385 -2.8568504 115.42638 0
9.057229 3.6185815 0.11906184 250 0 0 3.2975979 -1.7664748 114.28096 0
9.0278091 3.6974986 0.15627997 250 0 0 4.3551211 -1.8690969 112.43932 0
9.0430622 3.7683604 0.14974566 250 0 0 4.3407578 -2.235992 112.67966 0
9.0340128 3.8839393 0.13634436 250 0 0 4.8772106 -3.0095778 113.28288 0
9.0447226 3.9546313 0.10467262 250 0 0 5.1222596 -2.188421 113.55701 0
9.0138817 4.0697021 0.14509539 250 0 0 4.691906 -0.52510226 115.27209 0
9.0135708 4.1563501 0.19164427 250 0 0 4.3455005 0.54301208 116.96965 0
9.0348949 4.2996306 0.17430101 250 0 0 2.2988985 -1.0552309 119.71805 0
9.0562029 4.3805685 0.15423797 250 0 0 1.6288745 -1.1248212 120.11332 0
9.0533094 4.4794106 0.1635292 250 0 0 1.3183852 -2.3316221 119.01997 0
9.0237875 4.5186005 0.14444014 250 0 0 0.87237453 -2.8024497 118.48889 0
9.0259151 4.5984011 0.13830324 250 0 0 2.2619424 -2.9282303 118.2397 0
9.0349569 4.6598978 0.14959437 250 0 0 2.2724349 -1.6203153 118.05254 0
9.0164967 4.73878 0.16205987 250 0 0 3.9494212 -1.1693887 116.93674 0
9.0304747 4.7826524 0.16580564 250 0 0 4.2944932 -1.0043823 117.10051 0
9.0509558 4.9187446 0.18174563 250 0 0 4.441709 -2.2675717 117.66347 0
9.0411215 4.9522772 0.14815676 250 0 0 4.1393533 -2.9277785 117.40916 0
9.0330772 5.0550203 0.15175726 250 0 0 4.8564878 -0.17080636 118.3045 0
9.0537491 5.146739 0.1884674 250 0 0 4.2984128 1.2095857 119.05044 0
9.069519 5.2843328 0.1849917 250 0 0 3.2881048 0.57434553 119.54432 0
9.0764828 5.3397532 0.17912324 250 0 0 3.2847989 0.55892366 119.20584 0
9.0837641 5.4513273 0.19723494 250 0 0 3.5225365 -0.2762416 117.16841 0
9.0886784 5.5241394 0.17083998 250 0 0 3.0983198 -1.4586205 115.68816 0
9.0579309 5.5769444 0.18830401 250 0 0 3.589849 -0.50250149 114.3586 0
9.0518694 5.6285973 0.18809843 250 0 0 3.4453025 -0.16849105 114.57234 0
9.0583229 5.7544389 0.20429827 250 0 0 4.061604 -0.78015083 114.73988 0
9.0791731 5.8799577 0.18186077 250 0 0 4.1754117 -1.6876705 113.99798 0
9.0854826 5.935133 0.17876466 250 0 0 4.4262328 -1.8362615 113.69943 0
9.090724 6.039782 0.16156635 250 0 0 4.5856695 -0.66808361 113.37164 0
9.0859041 6.0912366 0.18507816 250 0 0 5.1088076 0.034665011 113.31368 0
9.1114092 6.235043 0.21610864 250 0 0 3.8957217 0.62451333 114.46653 0
9.1124859 6.286962 0.21800144 250 0 0 3.8325098 0.089951403 114.1003 0
9.1211462 6.4009156 0.20460066 250 0 0 3.1878695 0.30350691 113.67156 0
9.1187897 6.4575644 0.22495669 250 0 0 3.5873103 -0.32090306 113.51092 0
9.1103096 6.5252976 0.20409143 250 0 0 2.8890574 -1.1866733 112.17866 0
9.1117506 6.6235018 0.22595657 250 0 0 2.7862427 -1.3455546 112.33134 0
9.120491 6.744235 0.21300204 250 0 0 2.9383645 -0.16589135 111.81427 0
9.0890102 6.7719588 0.23826228 250 0 0 3.0762978 0.20929044 111.39539 0
9.1078148 6.8832412 0.24736728 250 0 0 3.3067749 0.2483712 113.21786 0
9.1091261 6.948575 0.25004745 250 0 0 3.2205405 -0.18569985 113.56255 0
9.1258669 7.062386 0.24617217 250 0 0 3.557538 -0.63383907 114.68633 0
9.1256208 7.1182837 0.26125497 250 0 0 4.406085 -0.54586869 115.0272 0
9.1381493 7.2578874 0.29845437 250 0 0 4.6315551 0.58635205 116.74624 0
9.1465254 7.3221951 0.28659043 250 0 0 4.593863 0.03766216 117.2519 0
9.1566229 7.4527164 0.28042543 250 0 0 4.1956682 0.2744005 117.0383 0
9.1608152 7.5194821 0.28067908 250 0 0 3.7205503 -0.14208791 116.55055 0
9.128335 7.6162381 0.25714308 250 0 0 4.0993028 -0.47489059 115.17344 0
9.1626968 7.72609 0.27742964 250 0 0 5.240056 0.22113912 114.75449 0
9.148283 7.8512902 0.30278489 250 0 0 4.5272527 0.2314761 113.89822 0
9.1345367 7.8759189 0.32788035 250 0 0 4.4220586 -0.38524804 113.69899 0
9.150753 8.0098686 0.31112772 250 0 0 5.1349244 -1.2479658 114.24174 0
9.1490822 8.058073 0.31046152 250 0 0 4.8008766 -1.5482221 114.44421 0
9.1496763 8.1757355 0.29019842 250 0 0 5.0653825 -0.33170143 115.11875 0
9.1465836 8.3095942 0.30813837 250 0 0 5.1729932 1.4291742 116.74951 0
9.1511717 8.3838406 0.34033471 250 0 0 4.4038935 1.8805735 117.6247 0
9.1607533 8.5467949 0.34718978 250 0 0 3.1179554 0.97752261 118.01337 0
9.1508837 8.6288805 0.35187405 250 0 0 3.3119631 -0.1949285 117.90944 0
9.1507244 8.7776899 0.31469193 250 0 0 3.4976194 -1.5830221 117.60996 0
9.1474171 8.8652678 0.32554117 250 0 0 3.5994821 -0.72647464 116.52438 0
9.1439476 9.0218782 0.34664136 250 0 0 3.7301686 0.39778033 116.26247 0
9.1248398 9.0911779 0.36142805 250 0 0 3.7348912 -0.0091969073 115.88574 0
9.128294 9.2504101 0.34726354 250 0 0 4.1436043 -1.9151974 116.63996 0
9.1278391 9.3260622 0.33216068 250 0 0 4.0795283 -2.3407898 117.10828 0
9.1127796 9.4511337 0.3274698 250 0 0 5.7722011 -1.6407886 119.10789 0
9.1169147 9.5240126 0.32014984 250 0 0 5.6821914 -0.51713705 120.4398 0
9.1106205 9.6933279 0.34661308 250 0 0 4.3360815 0.6379267 121.82243 0
9.1160841 9.784236 0.35512036 250 0 0 3.9462934 0.36505005 121.83934 0
9.107275 9.9464102 0.3472625 250 0 0 2.5480015 -2.7386334 120.01397 0
9.0956049 10.018428 0.33343858 250 0 0 4.1196599 -2.0405931 119.65026 0
9.0836334 10.176379 0.3342815 250 0 0 3.3606877 -1.6168386 118.1777 0
9.0902414 10.268718 0.36058265 250 0 0 3.4564409 -0.78890771 117.39193 0
9.0823488 10.40627 0.37984031 250 0 0 4.6582346 -2.254174 117.50922 0
9.0878925 10.477565 0.3705456 250 0 0 4.7647834 -3.0866275 118.15782 0
9.0994081 10.626224 0.35650018 250 0 0 6.4454422 -2.3921001 119.21553 0
9.1038904 10.701699 0.34196222 250 0 0 7.0671844 -1.4682932 119.9161 0
9.1183205 10.877428 0.38132486 250 0 0 5.8133616 -0.0031616336 120.73911 0
9.1263809 10.971346 0.36966711 250 0 0 5.0059562 -0.11715859 120.6445 0
9.1357632 11.160323 0.3837955 250 0 0 4.1453295 -1.343861 118.91208 0
9.1400394 11.246898 0.36508375 250 0 0 3.7660468 -3.0123379 117.44903 0
9.117198 11.368347 0.33783287 250 0 0 4.6185951 -2.0123999 114.6412 0
9.1156425 11.449133 0.34833768 250 0 0 5.5133486 -0.21647598 114.02632 0
9.1072397 11.607935 0.38795459 250 0 0 6.5614362 0.56299144 112.24911 0
9.1222334 11.773078 0.38442284 250 0 0 6.2125664 -2.0493491 113.64159 0
9.1220274 11.839846 0.37841249 250 0 0 6.3858409 -2.4378936 113.71357 0
9.1301546 11.97971 0.3711434 250 0 0 7.3253469 -1.6032605 116.01733 0
9.1544456 12.088925 0.39561361 250 0 0 6.9034495 -0.45891386 116.42544 0
9.1583853 12.274687 0.41872948 250 0 0 4.9366522 -0.69798785 116.96328 0
9.161767 12.372948 0.43224576 250 0 0 4.98737 -1.6515098 116.3132 0
9.1558008 12.521481 0.40732905 250 0 0 4.0263667 -3.9361842 114.94188 0
9.1560078 12.604602 0.42264879 250 0 0 5.3472257 -3.6847548 114.2697 0
9.1648903 12.753741 0.42626303 250 0 0 6.2819996 -2.3897729 112.69427 0
9.1489782 12.824644 0.46046573 250 0 0 6.364881 -2.1860597 111.87885 0
9.1405001 12.982135 0.44162348 250 0 0 5.2937841 -3.9616916 113.15834 0
9.1415091 13.062228 0.43231288 250 0 0 5.3797975 -4.0318618 113.84579 0
9.1454191 13.218369 0.41558546 250 0 0 7.0045652 -2.8448179 116.26601 0
9.1412115 13.290604 0.40363243 250 0 0 7.0922341 -0.86554372 117.05731 0
9.1518555 13.473228 0.43824741 250 0 0 5.0950956 1.56207 119.08649 0
9.1569681 13.571806 0.4467718 250 0 0 4.4699917 1.6915873 119.40116 0
9.1739492 13.768241 0.46323144 250 0 0 3.4634058 -0.85531443 118.64489 0
9.1609335 13.836411 0.44307709 250 0 0 3.0835214 -2.4490221 116.81173 0
9.1440773 13.969032 0.41485274 250 0 0 5.1305318 -0.26575425 115.17946 0
9.1684551 14.081134 0.43725544 250 0 0 5.309083 1.8533965 114.57616 0
9.1410532 14.251989 0.49258596 250 0 0 5.4194355 1.8034712 114.06254 0
9.14499 14.344568 0.49715751 250 0 0 5.6394086 0.10379091 114.86097 0
9.156991 14.513422 0.46840355 250 0 0 7.8768506 -1.1829352 115.93595 0
9.1748304 14.603145 0.45978048 250 0 0 8.1397009 -1.2434975 116.70968 0
9.1962051 14.786459 0.49426854 250 0 0 6.5520916 1.2279994 117.63636 0
9.1960411 14.867836 0.49339783 250 0 0 5.6191058 0.99257445 118.0929 0
9.2174196 15.071736 0.52419066 250 0 0 5.5584722 0.18665962 117.36536 0
9.2246656 15.169865 0.51961672 250 0 0 4.6498981 -2.2566407 116.84412 0
9.2167702 15.297685 0.49968573 250 0 0 5.1357169 -3.2146254 115.33231 0
9.2187881 15.46821 0.51089352 250 0 0 4.6822171 -0.55150169 114.29883 0
9.2007341 15.543951 0.53016931 250 0 0 4.9494386 -0.389929 113.69697 0
9.214324 15.713549 0.53440404 250 0 0 4.5339761 -2.6024051 114.7621 0
9.2152634 15.800809 0.53193796 250 0 0 4.1997004 -3.9662695 115.32707 0
9.2132568 15.90948 0.52350605 250 0 0 5.5569377 -4.0918441 117.10674 0
9.2184706 15.996444 0.52516639 250 0 0 5.6368365 -1.743693 118.07236 0
9.2331352 16.194359 0.54404128 250 0 0 4.0889812 -0.079218268 118.89887 0
9.2441111 16.302179 0.55522037 250 0 0 3.5559239 -0.56713867 118.2955 0
9.2427835 16.4611 0.5316726 250 0 0 2.6551597 -3.0132208 116.01797 0
9.2410917 16.534628 0.5421589 250 0 0 3.610729 -2.1120477 115.21947 0
9.2464762 16.675579 0.54709423 250 0 0 5.0765963 -0.099774219 113.64341 0
9.257432 16.763258 0.57217658 250 0 0 5.4510655 1.1050608 112.39472 0
9.253212 16.91823 0.58179849 250 0 0 5.6678734 0.39676476 112.38541 0
9.2677908 17.006287 0.5825218 250 0 0 5.573945 -0.82627678 113.12259 0
9.2639332 17.129745 0.58447653 250 0 0 6.1848621 -3.8859317 116.30138 0
9.2584343 17.214851 0.6066823 250 0 0 6.8565211 -3.0800283 117.25085 0
9.2883043 17.400013 0.62741202 250 0 0 5.5992355 -0.55484527 118.11923 0
9.2966833 17.487562 0.62987244 250 0 0 5.3947411 -0.17014727 117.98151 0
9.3191004 17.675743 0.62805367 250 0 0 4.8756094 -0.92122692 116.3367 0
9.3340044 17.785446 0.62574214 250 0 0 3.9836326 -1.9487081 115.1782 0
9.3113832 17.902462 0.63798451 250 0 0 5.3402338 -0.92768133 113.05605 0
9.3118534 17.96917 0.6477918 250 0 0 5.0598855 0.56545383 112.65028 0
9.3465214 18.161768 0.65272462 250 0 0 5.7210584 0.83418477 112.91718 0
9.3583231 18.26129 0.64599138 250 0 0 5.7099023 -1.2302938 114.03817 0
9.3548479 18.395847 0.64028603 250 0 0 5.4511909 -2.946733 115.59446 0
9.3584146 18.540478 0.65362066 250 0 0 6.9965181 -0.99779689 117.32854 0
9.3556356 18.612007 0.6677103 250 0 0 6.42766 1.0703741 118.05063 0
9.3542776 18.784124 0.68930674 250 0 0 5.1739326 1.3711859 119.88473 0
9.3498945 18.867666 0.68829608 250 0 0 4.5805559 0.75452471 119.75193 0
9.3350382 19.026653 0.70304 250 0 0 3.7632749 -1.9464911 118.39727 0
9.3135004 19.077951 0.72322369 250 0 0 4.9789066 -2.5119414 117.05863 0
9.2955437 19.195728 0.73533922 250 0 0 5.4411454 -0.74933493 115.43609 0
9.3090992 19.283638 0.73496211 250 0 0 5.521584 0.38462806 114.10474 0
9.3502417 19.454277 0.70768875 250 0 0 5.3280187 -2.0656245 114.68809 0
9.3600559 19.527889 0.70403856 250 0 0 5.031929 -3.3427413 115.41795 0
9.3471889 19.636337 0.6974569 250 0 0 6.1992579 -2.3351259 116.85043 0
9.3405333 19.692945 0.68286866 250 0 0 6.444839 -1.2504255 117.84953 0
9.3842936 19.899096 0.75661176 250 0 0 3.9738455 0.031282403 119.59566 0
9.3903227 19.974577 0.75116402 250 0 0 3.2100148 -0.37738058 119.48491 0
9.4046097 20.13921 0.76348072 250 0 0 3.1980059 -1.4040396 118.29342 0
9.3713045 20.171255 0.74804735 250 0 0 2.2987466 -2.0370529 117.10743 0
9.380394 20.337507 0.78604597 250 0 0 3.0219293 -1.386379 115.80733 0
9.397212 20.401203 0.76073176 250 0 0 3.5212767 -0.25478694 115.59219 0
9.4226522 20.56543 0.82415795 250 0 0 3.5918255 0.35940844 114.08447 0
9.4372225 20.645586 0.82987428 250 0 0 4.0288906 -0.75000143 114.88747 0
9.4648266 20.780163 0.83425838 250 0 0 3.8576312 -4.1040359 117.37889 0
9.4732084 20.865917 0.84701169 250 0 0 4.8269486 -4.6450596 118.98562 0
9.463357 20.975981 0.86671132 250 0 0 4.6383796 -2.6503468 120.59145 0
9.471715 21.070435 0.89226425 250 0 0 3.9107642 -2.2935114 120.95553 0
9.4962206 21.244892 0.89162499 250 0 0 2.974117 -2.6139381 120.86154 0
9.4710293 21.379635 0.89052099 250 0 0 2.8012671 -4.2672086 119.30404 0
9.4625072 21.441954 0.89116865 250 0 0 4.5225878 -3.4901149 119.02571 0
9.4533834 21.570675 0.8941977 250 0 0 4.6849174 -0.85471219 117.52087 0
9.4855223 21.670101 0.91568303 250 0 0 4.6624007 -0.5555768 118.48869 0
9.4709206 21.807478 0.90547752 250 0 0 5.4224715 -2.1106403 118.89725 0
9.4838696 21.887568 0.91619503 250 0 0 5.6419096 -2.9063256 119.94376 0
9.4714823 22.010649 0.92153054 250 0 0 4.5677557 -4.5895429 123.05434 0
9.4473524 22.054161 0.92378342 250 0 0 5.0594459 -4.1827312 123.901 0
9.4643497 22.215502 0.93226767 250 0 0 4.5152717 -1.3969409 124.31495 0
9.4744453 22.296469 0.93483543 250 0 0 4.0599465 -0.78990972 124.0968 0
9.4515133 22.441839 0.9218753 250 0 0 3.0463848 -1.4375253 122.34197 0
9.4733162 22.559195 0.88954496 250 0 0 2.8168263 -2.8746257 122.00245 0
9.4253426 22.647738 0.90207589 250 0 0 3.5847988 -2.8535557 119.68283 0
9.410862 22.701187 0.91463387 250 0 0 3.5670245 -1.2341211 118.89997 0
9.4335966 22.861074 0.92228055 250 0 0 4.4171486 0.68890542 118.27586 0
9.4459324 22.937824 0.92525673 250 0 0 4.2070732 0.35072777 118.62567 0
9.4598618 23.08968 0.93761033 250 0 0 3.8779392 -1.3395925 119.09693 0
9.4592085 23.165571 0.92046833 250 0 0 4.7678766 -0.95903963 119.28258 0
9.4603405 23.304235 0.9443633 250 0 0 5.2265086 0.25765976 120.69369 0
9.4686956 23.388521 0.97245461 250 0 0 4.8103027 0.91890103 121.10713 0
9.479785 23.560036 0.98635733 250 0 0 4.0447369 0.8387394 121.06755 0
9.4828749 23.65139 0.97641742 250 0 0 3.6085355 -0.033545136 120.51129 0
9.4695702 23.803812 0.96201283 250 0 0 3.1594553 -3.065707 118.26864 0
9.4776316 23.8701 0.97283208 250 0 0 4.3798256 -2.6198397 117.22216 0
9.4881086 24.015759 0.98950523 250 0 0 4.2949018 0.8258636 115.25691 0
9.5215244 24.116774 0.97898781 250 0 0 4.2937498 1.0625864 114.51708 0
9.5249071 24.3008 0.96016949 250 0 0 4.0545816 -1.9542249 115.22314 0
9.5350866 24.387486 0.95486629 250 0 0 3.7528446 -3.4027774 115.6322 0
9.5478535 24.520163 0.95273012 250 0 0 4.868144 -3.1239462 116.95114 0
9.5397148 24.592358 0.96644717 250 0 0 4.8881345 -1.3940903 118.00608 0
9.5246878 24.768833 0.97936141 250 0 0 4.0355387 -0.1765403 118.60046 0
9.5312777 24.861315 0.9800849 250 0 0 3.5468264 0.19524364 118.40449 0
9.5302734 25.053646 0.94333106 250 0 0 3.0607569 -2.6867206 117.54157 0
9.5060654 25.18405 0.94193971 250 0 0 4.4233947 -3.4822268 116.38784 0
9.5017223 25.243107 0.94474941 250 0 0 4.4490705 -2.380733 115.61064 0
9.5052557 25.451921 0.95178473 250 0 0 4.4827566 -1.0297521 115.58957 0
9.5050621 25.547709 0.94229984 250 0 0 4.3964052 -1.8577693 116.66285 0
9.5139341 25.728765 0.91520691 250 0 0 3.8198104 -4.1597629 117.97159 0
9.5164804 25.806585 0.90330762 250 0 0 3.3624532 -5.6962218 118.60136 0
9.506918 25.923946 0.95065904 250 0 0 3.4652028 -4.5270014 120.18848 0
9.4987373 26.001076 0.94055414 250 0 0 3.1948535 -2.9381626 119.99949 0
9.4899216 26.167215 0.92686015 250 0 0 2.9901867 -2.5352631 120.07929 0
9.4850435 26.245073 0.91103709 250 0 0 2.4853239 -3.0462317 119.60455 0
9.4664888 26.398397 0.88456225 250 0 0 2.0875151 -4.6721587 118.1619 0
9.4621134 26.463089 0.88497162 250 0 0 3.4543886 -4.6197896 117.76075 0
9.4593515 26.588799 0.89974701 250 0 0 3.6870544 -2.8546271 116.55022 0
9.4556417 26.678061 0.89286101 250 0 0 3.5700443 -2.1793985 115.63188 0
9.4665232 26.849836 0.8660965 250 0 0 4.4427085 -3.1091268 117.05342 0
9.4678688 26.923162 0.85446692 250 0 0 4.3980441 -3.3392086 116.84905 0
9.4686613 27.078325 0.83756721 250 0 0 4.6708264 -3.5947165 116.86695 0
9.48036 27.142912 0.83818185 250 0 0 4.7397246 -3.5361557 117.13764 0
9.466238 27.288765 0.85390323 250 0 0 4.0464215 -0.96582955 117.59108 0
9.4634247 27.356386 0.85068518 250 0 0 3.8157616 -0.71183914 118.10101 0
9.4379025 27.526896 0.83340538 250 0 0 3.6326089 -0.8441816 117.74408 0
9.4283257 27.600885 0.82528514 250 0 0 3.9316988 -1.7693832 118.30685 0
9.4181423 27.722507 0.82120782 250 0 0 4.3909159 -2.6043627 119.26884 0
9.4186659 27.765631 0.82399148 250 0 0 4.322648 -2.0907009 119.20091 0
9.3919468 27.903139 0.8388828 250 0 0 4.7671509 0.75917429 120.37232 0
9.3706446 27.975679 0.84020758 250 0 0 4.8213758 0.47730625 122.67158 0
9.3499823 28.110491 0.82760763 250 0 0 4.4821539 -0.51666629 126.86958 0
9.3418665 28.168798 0.82241958 250 0 0 3.6475194 -1.6922615 129.21231 0
9.343647 28.25284 0.81959057 250 0 0 2.618166 -2.610254 133.86555 0
9.3477116 28.285 0.81910074 250 0 0 2.2304013 -0.87100601 136.10182 0
9.307888 28.386288 0.81263882 250 0 0 2.0180969 0.072540887 138.58429 0
9.2939644 28.433338 0.80984604 250 0 0 1.7381598 0.25083604 140.14049 0
9.2554283 28.526747 0.8005718 250 0 0 0.91088313 0.13916062 142.81476 0
9.2207689 28.60084 0.79127747 250 0 0 0.65730894 0.28780517 146.2811 0
9.2010918 28.639196 0.78525382 250 0 0 0.96961868 -0.27120841 147.49883 0
9.1775827 28.698286 0.79088932 250 0 0 1.4240783 1.4012189 151.0316 0
9.153739 28.73535 0.79111224 250 0 0 1.4313935 1.4591388 153.38046 0
9.1131687 28.796753 0.78974456 250 0 0 1.7179641 1.7071421 161.15219 0
9.0908155 28.825312 0.78616875 250 0 0 1.5945812 1.6755176 166.22849 0
9.0759535 28.856234 0.77965575 250 0 0 1.3564872 2.8958676 177.57631 0
9.061944 28.874987 0.78252256 250 0 0 1.4615527 2.8181684 -176.24101 0
9.0547953 28.887571 0.77826625 250 0 0 1.6479172 2.656158 -163.45506 0
9.0420771 28.892567 0.77689105 250 0 0 1.5642492 3.2577112 -158.58173 0
9.0267696 28.880733 0.7792688 250 0 0 1.990262 3.3796074 -149.26703 0
9.0168467 28.872778 0.77905852 250 0 0 2.3047278 3.3818717 -144.57339 0
8.9970503 28.845118 0.77864921 250 0 0 2.4396877 2.9232979 -136.30649 0
8.9884014 28.82671 0.78096104 250 0 0 2.709533 2.7295136 -132.49565 0
8.9625664 28.818804 0.77522856 250 0 0 2.6580067 2.2312236 -126.2335 0
8.9481459 28.806143 0.78354353 250 0 0 3.2754848 2.6648431 -123.9475 0
8.9177952 28.791134 0.7745437 250 0 0 3.7908778 2.937124 -119.98183 0
8.9029264 28.779324 0.77939975 250 0 0 3.8111627 3.4346814 -118.61102 0
8.8538895 28.752575 0.79032815 250 0 0 4.4610519 3.0913188 -114.77988 0
8.8289242 28.743685 0.78738797 250 0 0 4.3684344 2.2023468 -113.25484 0
8.771348 28.731266 0.77887475 250 0 0 5.0361972 1.1329743 -110.87354 0
8.7451401 28.718727 0.76921695 250 0 0 5.2221293 1.577628 -109.97017 0
8.6834507 28.680489 0.76943612 250 0 0 4.7707801 1.9361033 -108.61185 0
8.6522493 28.654825 0.77380925 250 0 0 4.8642955 1.5843951 -108.00554 0
8.5829544 28.603088 0.76875275 250 0 0 5.2137241 -1.0049826 -107.8877 0
8.537446 28.58049 0.76438314 250 0 0 5.6633382 -0.6754005 -108.32127 0
8.4739008 28.51281 0.74659055 250 0 0 6.4926867 -1.1032063 -109.91951 0
8.4244299 28.483397 0.74711996 250 0 0 6.3734961 0.44077763 -110.48276 0
8.3512335 28.401043 0.77331674 250 0 0 6.435565 0.72919726 -111.25697 0
8.3020372 28.368584 0.77886218 250 0 0 6.7872682 -0.48455042 -110.92998 0
8.2021294 28.309412 0.75455809 250 0 0 6.8413138 -2.3822134 -110.04854 0
8.1540051 28.277996 0.7586273 250 0 0 6.8325267 -2.3686485 -109.74106 0
8.0506001 28.221149 0.76043928 250 0 0 6.9247117 -2.2616374 -108.58035 0
7.9446731 28.161102 0.77944225 250 0 0 6.3749781 -0.65232211 -108.4515 0
7.8988547 28.126522 0.78196836 250 0 0 6.1981583 -0.86644244 -108.2691 0
7.7867265 28.066076 0.78000557 250 0 0 5.7792687 -1.96609 -108.04002 0
7.7300401 28.035845 0.78056616 250 0 0 5.3891959 -2.9356747 -108.50332 0
7.6232409 27.970762 0.78182608 250 0 0 6.824429 -3.0956337 -108.77871 0
7.5994 27.916454 0.76270717 250 0 0 6.5002861 -3.3572721 -108.77322 0
7.4838009 27.858669 0.79042089 250 0 0 7.3453517 -1.3385978 -109.12779 0
7.4339185 27.824667 0.7921145 250 0 0 7.5997252 -2.0490663 -108.65211 0
7.3256807 27.751213 0.78789109 250 0 0 7.0687299 -3.3186209 -107.96055 0
7.2744327 27.715054 0.76792997 250 0 0 6.3030853 -3.8317497 -106.86047 0
7.1632862 27.651999 0.77687258 250 0 0 7.1359577 -2.9497147 -105.62281 0
7.1115785 27.61657 0.77436864 250 0 0 7.5607686 -1.6175346 -104.82387 0
7.008101 27.546131 0.78714937 250 0 0 7.0361199 -1.0233254 -103.43888 0
6.9603491 27.505445 0.7841782 250 0 0 7.0190587 -0.70448869 -102.97801 0
6.8507853 27.424929 0.77997601 250 0 0 6.8004704 -1.0471033 -102.23513 0
6.7900243 27.385029 0.78608656 250 0 0 6.0696545 -1.8704349 -102.92219 0
6.6901197 27.295721 0.80079299 250 0 0 7.5560956 -3.6875942 -103.83136 0
6.6445355 27.255573 0.7638135 250 0 0 7.2730274 -2.7997501 -103.729 0
6.5466552 27.14727 0.81108975 250 0 0 7.4834085 -0.31538168 -105.17683 0
6.4890428 27.096615 0.82215565 250 0 0 7.7497892 -1.7081242 -104.12106 0
6.3759227 27.01915 0.80036026 250 0 0 7.4592953 -4.257545 -103.67261 0
6.3147893 26.973251 0.81059551 250 0 0 7.4787889 -4.53227 -103.20979 0
6.2197738 26.921644 0.77838361 250 0 0 7.5824137 -3.7576733 -100.98425 0
6.1628203 26.861748 0.80918056 250 0 0 7.5320334 -2.4009137 -100.97167 0
6.0618424 26.775499 0.81073225 250 0 0 7.5436811 -2.9442508 -100.84361 0
6.0129991 26.731817 0.80687207 250 0 0 7.4164944 -3.0956509 -101.48661 0
5.926116 26.657471 0.78232318 250 0 0 7.090374 -4.3222904 -101.8325 0
5.8661957 26.614052 0.8061232 250 0 0 8.0232992 -2.9001324 -102.24301 0
5.7838645 26.523773 0.81892282 250 0 0 8.15376 -3.0194752 -102.06113 0
5.7362261 26.47677 0.83452958 250 0 0 8.0202627 -2.1056159 -102.73222 0
5.6505055 26.388552 0.83850706 250 0 0 7.719295 -3.4391448 -101.81852 0
5.6015759 26.351564 0.82956326 250 0 0 7.6630874 -3.7581837 -101.76116 0
5.5050621 26.273138 0.80564094 250 0 0 7.0831332 -3.6659651 -100.8163 0
5.4532104 26.235645 0.82617366 250 0 0 8.5551901 -2.2948925 -101.42211 0
5.3621936 26.140434 0.84753668 250 0 0 8.723402 -2.2336674 -100.2271 0
5.3213263 26.090393 0.85809606 250 0 0 7.9557323 -2.5932121 -99.360909 0
5.2449088 26.008123 0.85903943 250 0 0 8.0555639 -3.1671696 -97.958214 0
5.2020841 25.971111 0.85938793 250 0 0 7.7882018 -3.6583142 -97.862106 0
5.1246238 25.883091 0.8686986 250 0 0 8.310133 -3.6675005 -99.389114 0
5.0487151 25.779346 0.89039952 250 0 0 9.3424044 -4.0991139 -100.01736 0
5.0094686 25.74403 0.90498984 250 0 0 8.7718315 -3.3121207 -100.35213 0
4.9462967 25.629301 0.91802019 250 0 0 8.0423994 -4.1554055 -99.455933 0
4.9058514 25.583796 0.91252112 250 0 0 8.1231003 -4.6955013 -98.871284 0
4.8191652 25.478897 0.90351081 250 0 0 8.0908089 -6.1039529 -97.748238 0
4.774456 25.431673 0.90516764 250 0 0 8.0471125 -6.2304478 -96.860886 0
4.6866808 25.337137 0.92144305 250 0 0 8.7004719 -5.871614 -95.638847 0
4.645052 25.28828 0.92785603 250 0 0 8.2553291 -5.8120527 -95.091194 0
4.5595789 25.188986 0.92654091 250 0 0 7.6724281 -4.9555535 -95.316017 0
4.5168362 25.120062 0.9222461 250 0 0 7.8500462 -4.9862409 -95.558067 0
4.4360247 25.013529 0.91369826 250 0 0 6.9426198 -6.4148602 -96.322777 0
4.3946838 24.952864 0.91392028 250 0 0 7.8694792 -5.9240608 -96.359665 0
4.3216953 24.887598 0.92569369 250 0 0 7.5655761 -5.5110588 -96.16832 0
4.2830563 24.830404 0.9305917 250 0 0 7.6856065 -3.7956889 -97.597961 0
4.2017021 24.69158 0.93206447 250 0 0 8.2734623 -4.7347627 -96.654404 0
4.1569104 24.647991 0.92563707 250 0 0 7.9344425 -5.5429163 -96.761208 0
4.0615206 24.557898 0.91215622 250 0 0 7.4986277 -6.5828314 -95.838409 0
4.0155621 24.494345 0.91521543 250 0 0 7.4417505 -6.4031749 -95.05751 0
3.9235716 24.405945 0.92430896 250 0 0 7.587141 -5.4688597 -92.60862 0
3.8841579 24.349056 0.93108529 250 0 0 6.663116 -5.4596848 -91.807732 0
3.7999666 24.261583 0.92966086 250 0 0 5.8916984 -4.7189107 -92.498672 0
3.7563641 24.200098 0.92380339 250 0 0 5.9120755 -4.2848482 -93.507614 0
3.6652822 24.089581 0.908562 250 0 0 5.7183142 -4.8631687 -95.076706 0
3.6199458 24.042364 0.90882432 250 0 0 6.5441794 -3.5494142 -96.09407 0
3.5356228 23.953588 0.91648698 250 0 0 6.4749751 -2.8227682 -96.474983 0
3.4876702 23.909645 0.92447543 250 0 0 6.3932352 -1.4675522 -97.466591 0
3.4226723 23.792551 0.92937279 250 0 0 7.0868444 -1.3598102 -96.970917 0
3.3785539 23.739288 0.92811018 250 0 0 6.8818741 -2.1096964 -96.847977 0
3.2891514 23.634491 0.90335059 250 0 0 6.7158861 -3.4476242 -95.954231 0
3.2463136 23.583185 0.91420645 250 0 0 7.0574265 -2.7372992 -95.750359 0
3.1720374 23.472479 0.93540972 250 0 0 7.0370374 -1.3458121 -93.625435 0
3.1316416 23.416451 0.94992429 250 0 0 6.3998761 -1.834468 -92.385803 0
3.046145 23.313654 0.94172549 250 0 0 6.7551422 -2.1882479 -92.182831 0
2.9653983 23.200083 0.93847501 250 0 0 6.6613216 -3.6616147 -93.082016 0
2.9468741 23.143431 0.90127581 250 0 0 7.0867357 -3.1290171 -93.311157 0
2.892288 23.031391 0.93080956 250 0 0 7.4021955 -1.810954 -95.032715 0
2.8161182 22.972555 0.93687433 250 0 0 7.4077945 -0.56487167 -94.883949 0
2.7829325 22.852512 0.97260487 250 0 0 8.0939264 -1.4751455 -95.65625 0
2.7242501 22.796436 0.97555602 250 0 0 8.3291559 -2.7194374 -94.950256 0
2.6567111 22.687595 0.92537296 250 0 0 7.992888 -4.5866971 -94.500435 0
2.5963936 22.624599 0.94915849 250 0 0 9.1487865 -3.2564688 -95.031517 0
2.5547593 22.523184 0.95129919 250 0 0 8.7491989 -3.0578754 -93.482239 0
2.5240128 22.459137 0.97156882 250 0 0 8.2187796 -2.4714017 -92.143692 0
2.4423716 22.342571 0.97092551 250 0 0 8.336031 -2.6368432 -91.308708 0
2.3984151 22.278177 0.97015572 250 0 0 8.4091568 -2.85882 -91.266327 0
2.3492208 22.152496 0.94079137 250 0 0 6.977663 -4.8718314 -92.722916 0
2.2934055 22.092979 0.94903439 250 0 0 7.852787 -3.3775048 -92.856049 0
2.2310674 21.975155 0.95568818 250 0 0 7.0064306 -2.2099221 -94.126686 0
2.1939573 21.914165 0.98060977 250 0 0 7.2430172 -1.1279666 -95.687737 0
2.1266694 21.783037 0.98744816 250 0 0 7.9050341 -2.3948781 -95.813515 0
2.085849 21.720432 0.98700523 250 0 0 8.0975084 -3.6490088 -96.234612 0
2.0050457 21.601431 0.95569992 250 0 0 8.8005056 -3.4032974 -95.887672 0
1.9795599 21.542303 0.9685992 250 0 0 8.8701277 -3.3570528 -95.37085 0
1.9159188 21.417358 0.99079984 250 0 0 7.9112678 -2.1589212 -92.501045 0
1.872213 21.359488 0.99510896 250 0 0 7.4990039 -2.5194607 -91.242989 0
1.7918639 21.235645 0.99037683 250 0 0 6.9176354 -2.1857519 -91.270477 0
1.758094 21.166937 0.99399394 250 0 0 6.6943283 -3.1008132 -91.408096 0
1.6993641 21.042421 0.96648836 250 0 0 6.5586467 -3.9817667 -93.410889 0
1.6542026 20.974293 0.9865486 250 0 0 7.1614223 -2.9133277 -94.368813 0
1.574739 20.846727 0.99581343 250 0 0 6.8916183 -0.92755616 -94.34082 0
1.535291 20.703293 1.0175714 250 0 0 7.2974401 -1.4268997 -93.759888 0
1.4884102 20.638075 1.0115004 250 0 0 7.4805508 -2.6385899 -93.490776 0
1.417486 20.50696 0.96688527 250 0 0 7.0487542 -3.279366 -93.660851 0
1.3640468 20.439564 1.009284 250 0 0 8.0305719 -2.8351364 -94.013481 0
1.3132164 20.319941 0.99741042 250 0 0 7.9341621 -1.6648904 -92.632698 0
1.277088 20.254204 1.0207918 250 0 0 7.2630825 -1.3653861 -91.766373 0
1.1983038 20.118856 1.032372 250 0 0 6.686203 -1.6829506 -91.012123 0
1.17137 20.05287 1.0428067 250 0 0 6.4035053 -2.8210483 -91.275589 0
1.1165173 19.93453 1.0151263 250 0 0 6.3049273 -4.8932047 -93.17421 0
1.0855718 19.874697 1.0288926 250 0 0 6.5164628 -4.8260098 -94.116127 0
1.0076334 19.754725 1.0245006 250 0 0 6.377358 -1.7388058 -94.79644 0
1.0104809 19.691744 1.0514371 250 0 0 6.5352187 -1.5043702 -95.431023 0
0.95530671 19.566223 1.0642297 250 0 0 6.9990501 -3.1982584 -94.726601 0
0.9447915 19.521336 1.0213634 250 0 0 6.9732709 -3.9638262 -94.3508 0
0.88610899 19.402084 1.0243673 250 0 0 7.4702892 -1.7536256 -94.102463 0
0.86051661 19.337713 1.0298113 250 0 0 7.5428095 -0.77522796 -93.124306 0
0.79243731 19.203154 1.0596868 250 0 0 6.5235944 -0.82352018 -92.08577 0
0.76827365 19.139269 1.0617632 250 0 0 6.5259666 -1.2390386 -92.027 0
0.69464505 19.005665 1.0675902 250 0 0 6.0477428 -4.0306196 -94.559692 0
0.66241646 18.955297 1.0647348 250 0 0 6.6934466 -5.2070436 -94.864738 0
0.58413047 18.83778 1.0581455 250 0 0 6.0597696 -2.6510103 -97.472198 0
0.57349211 18.778591 1.0830483 250 0 0 6.8065095 -2.5602279 -98.192604 0
0.51941067 18.671829 1.0732704 250 0 0 7.9609194 -3.5455856 -97.215858 0
0.48218319 18.610846 1.0805275 250 0 0 8.0293398 -3.8513193 -96.524971 0
0.38415337 18.490669 1.0630677 250 0 0 8.9001446 -2.5259948 -94.492104 0
0.3311722 18.432537 1.0800108 250 0 0 9.1882849 -2.1105282 -94.257233 0
0.25995797 18.312786 1.1075855 250 0 0 7.1933732 -3.0873692 -93.302979 0
0.23160289 18.254858 1.1000116 250 0 0 6.840354 -3.81125 -93.019028 0
0.14606759 18.123703 1.0822989 250 0 0 6.6840467 -4.1379681 -93.23761 0
0.13116245 18.071894 1.0629934 250 0 0 6.5343823 -5.0608897 -93.658524 0
0.0083309254 17.92374 1.0597328 250 0 0 8.1662436 -2.9659069 -95.058838 0
-0.052724548 17.849699 1.0512626 250 0 0 8.3494453 -2.4229858 -94.939659 0
-0.1860785 17.694176 1.0631112 250 0 0 7.6829476 -2.7079365 -95.02256 0
-0.30867171 17.531834 1.0427105 250 0 0 7.4729643 -4.1180215 -93.462456 0
-0.3771368 17.446768 1.0285728 250 0 0 7.5321426 -5.204987 -92.648354 0
-0.51661414 17.273926 0.98980051 250 0 0 8.7842264 -4.9913211 -88.982529 0
-0.58381999 17.182577 1.0019829 250 0 0 8.832736 -2.8469465 -87.426025 0
-0.68098211 17.029224 0.999331 250 0 0 7.1728058 -2.5509739 -85.838257 0
-0.68367243 16.981602 0.99989921 250 0 0 7.3033314 -2.1930664 -86.30674 0
-0.76626426 16.821985 0.90146607 250 0 0 6.6439252 -5.7208891 -87.796249 0
-0.7912398 16.756449 0.86816585 250 0 0 7.5567904 -5.678854 -88.470436 0
-0.82353413 16.653374 0.89201057 250 0 0 7.323029 -5.1073208 -90.347916 0
-0.86203998 16.58309 0.90653831 250 0 0 7.7638774 -3.8248992 -91.121704 0
-0.88807023 16.454672 0.9381966 250 0 0 8.3510809 -4.8621912 -90.01886 0
-0.90708089 16.397703 0.92352027 250 0 0 8.2647247 -5.5324154 -89.637276 0
-0.95432067 16.280479 0.90772897 250 0 0 8.4040203 -3.3521669 -87.471603 0
-0.89531094 16.289995 1.0153795 250 0 0 8.894104 -4.13623 -85.21524 0
-0.95622009 16.141359 0.93865716 250 0 0 7.4744296 -3.4883792 -79.831505 0
-0.97263485 16.055889 0.97528726 250 0 0 6.5417948 -3.2911654 -77.853508 0
-1.0106647 15.951977 0.95318264 250 0 0 5.906055 -3.1625903 -75.12664 0
-1.0134615 15.885745 0.96859831 250 0 0 5.6767426 -2.8999283 -74.795197 0
-0.98964787 15.782481 0.94668913 250 0 0 5.4387016 -4.5679059 -73.312157 0
-1.0120299 15.703585 0.98098272 250 0 0 6.4480076 -3.7374902 -72.39991 0
-1.0116676 15.597535 0.9747749 250 0 0 6.1023211 -3.1677008 -71.083107 0
-1.0019752 15.535981 0.99599504 250 0 0 6.2935548 -2.4312401 -71.142723 0
-0.99733746 15.423014 1.020085 250 0 0 6.3153071 -2.4473243 -69.505852 0
-0.99256891 15.364983 1.0271162 250 0 0 6.0811 -3.1933262 -68.843925 0
-0.98862767 15.246067 1.0067419 250 0 0 6.4724016 -3.7686305 -67.288559 0
-0.97599912 15.21051 1.0118437 250 0 0 7.0505729 -3.7016892 -66.282623 0
-0.96417111 15.082695 1.038626 250 0 0 6.4199338 -2.6775095 -64.506622 0
-0.97782719 15.015756 1.0425169 250 0 0 5.8399768 -2.6332679 -63.656605 0
-0.97436756 14.891161 1.0506886 250 0 0 5.5811958 -2.6731753 -63.570992 0
-0.97331107 14.82955 1.0605043 250 0 0 5.5319328 -3.1612453 -63.678978 0
-0.94570625 14.717894 1.0625391 250 0 0 5.6677332 -4.9488301 -65.260391 0
-0.94973242 14.660347 1.0641739 250 0 0 5.9317837 -5.6199117 -65.531235 0
-0.92371583 14.550272 1.0800738 250 0 0 5.6260905 -3.6725912 -65.882355 0
-0.88014233 14.446183 1.0926467 250 0 0 6.3359122 -4.6126423 -64.228195 0
-0.88708895 14.376612 1.0844651 250 0 0 6.4571691 -5.0494394 -63.872829 0
-0.85650438 14.26113 1.0898063 250 0 0 6.9543476 -6.1318731 -62.440929 0
-0.86074275 14.190196 1.0918499 250 0 0 6.726109 -6.3883038 -61.704433 0
-0.84902865 14.083001 1.1189492 250 0 0 7.671793 -5.5103536 -60.600044 0
-0.84830379 14.023415 1.1168715 250 0 0 6.6568413 -5.9257202 -60.18372 0
-0.85630614 13.89737 1.1114012 250 0 0 5.9847674 -5.6351743 -61.445412 0
-0.85393709 13.83666 1.1104436 250 0 0 6.0082822 -5.6390629 -62.527824 0
-0.82431263 13.719436 1.0899594 250 0 0 5.7515097 -6.2690625 -63.605263 0
-0.82924289 13.644629 1.1098075 250 0 0 6.7737083 -5.1546054 -64.206444 0
-0.80492127 13.526941 1.1140735 250 0 0 6.6850748 -4.4875293 -65.094193 0
-0.77754283 13.46713 1.159615 250 0 0 6.8999825 -4.1825814 -65.799675 0
-0.77274758 13.332663 1.1532139 250 0 0 7.0917172 -5.5130234 -64.595886 0
-0.76149338 13.281093 1.1574515 250 0 0 6.9147511 -6.2250662 -64.519295 0
-0.74847543 13.17086 1.1387234 250 0 0 6.2920361 -6.4828367 -63.705326 0
-0.72079772 13.116249 1.1549724 250 0 0 7.3223519 -6.212182 -62.998032 0
-0.74465871 12.980783 1.1833922 250 0 0 6.9249425 -4.7727237 -61.086021 0
-0.74773926 12.921059 1.1661304 250 0 0 6.2962599 -4.6049342 -60.799911 0
-0.75618398 12.778065 1.1636457 250 0 0 5.8656898 -3.807277 -62.07021 0
-0.73686552 12.707591 1.1749892 250 0 0 6.1180644 -4.3945155 -62.895321 0
-0.71830702 12.585591 1.1528844 250 0 0 5.9094124 -5.3609695 -65.503349 0
-0.72742403 12.518242 1.1650572 250 0 0 6.1202965 -5.0164447 -65.712532 0
-0.72354007 12.385567 1.1747277 250 0 0 5.8476653 -3.181299 -66.871254 0
-0.66943634 12.333408 1.1990532 250 0 0 6.1344323 -3.6743493 -66.698441 0
-0.69837564 12.206523 1.1835707 250 0 0 6.5507922 -4.6866422 -65.16391 0
-0.70131505 12.141064 1.1784528 250 0 0 6.1673045 -5.0461135 -64.679657 0
-0.689107 12.015351 1.1821059 250 0 0 7.5396328 -4.1780128 -63.420261 0
-0.6961903 11.863049 1.2222137 250 0 0 6.9486313 -3.1422112 -61.267426 0
-0.69938213 11.807931 1.2055328 250 0 0 5.7896867 -3.6871598 -60.860962 0
-0.70415974 11.657059 1.209473 250 0 0 5.8030109 -3.5831859 -62.082191 0
-0.70754731 11.584839 1.2174759 250 0 0 5.7323995 -4.6557002 -62.892597 0
-0.68363041 11.46561 1.1896886 250 0 0 6.4415326 -4.214077 -64.579033 0
-0.67359364 11.400938 1.2082559 250 0 0 6.1042423 -4.110713 -65.567215 0
-0.66234463 11.273575 1.2198148 250 0 0 6.2901464 -2.1228409 -66.694839 0
-0.63705152 11.217888 1.2317405 250 0 0 6.6960411 -2.2863472 -66.24205 0
-0.65220553 11.08423 1.2239301 250 0 0 7.2835822 -2.9128251 -65.492874 0
-0.66510439 11.003303 1.2253398 250 0 0 6.9147315 -3.7394149 -64.874321 0
-0.65722853 10.876211 1.2263393 250 0 0 7.7040095 -4.2617216 -63.861694 0
-0.66166335 10.821358 1.2290822 250 0 0 7.9863424 -3.7807741 -63.035149 0
-0.67122376 10.672679 1.2452531 250 0 0 6.5111451 -2.7828341 -62.338676 0
-0.67888135 10.598832 1.2435423 250 0 0 6.3087626 -2.4747112 -62.351185 0
-0.67210943 10.457835 1.2502465 250 0 0 5.4361753 -3.2141931 -63.386509 0
-0.69651192 10.39511 1.230132 250 0 0 4.4840231 -3.9473827 -63.887516 0
-0.66631168 10.259909 1.2516218 250 0 0 5.9588852 -3.3198135 -65.770874 0
-0.67700446 10.215258 1.239449 250 0 0 5.7670479 -2.5994246 -66.158249 0
-0.62696284 10.046368 1.2940313 250 0 0 5.7159929 -2.7768836 -68.017998 0
-0.6496706 9.9726896 1.2738327 250 0 0 5.9077015 -3.6547182 -66.921951 0
-0.66435152 9.8416786 1.2519627 250 0 0 5.6752462 -4.3014288 -65.876579 0
-0.66285509 9.7774973 1.2281506 250 0 0 5.8788762 -3.4456608 -65.664261 0
-0.68067503 9.6366587 1.250338 250 0 0 7.4975581 -0.56816912 -63.847034 0
-0.68865162 9.5614262 1.3014967 250 0 0 6.5898604 -0.26649073 -63.305489 0
-0.69976932 9.4381399 1.2625641 250 0 0 5.458539 -0.2053919 -63.108074 0
-0.70289534 9.3604193 1.2707027 250 0 0 5.3091578 -0.091149516 -63.460644 0
-0.68264568 9.2227001 1.2454563 250 0 0 3.9610727 -2.2214127 -63.980106 0
-0.67417943 9.1582785 1.2369237 250 0 0 5.4366465 -1.0839063 -64.21154 0
-0.65619963 9.0165138 1.2735257 250 0 0 5.3148537 -0.79157054 -64.219566 0
-0.65828145 8.9375973 1.2867337 250 0 0 4.8524194 -0.037920009 -64.419746 0
-0.62880647 8.7796049 1.3205402 250 0 0 4.829206 -1.2558229 -63.510963 0
-0.62723374 8.7258787 1.2880993 250 0 0 4.8384786 -2.4780245 -63.151421 0
-0.61960429 8.6116266 1.2426881 250 0 0 5.1920524 -2.1253874 -62.492722 0
-0.61535138 8.5368013 1.2618659 250 0 0 5.946178 -0.78572673 -61.862488 0
-0.62735999 8.3796196 1.3107557 250 0 0 7.3481193 0.68550169 -59.163105 0
-0.64348602 8.3266649 1.2834822 250 0 0 6.2040777 0.061246771 -58.700207 0
-0.66055804 8.1748161 1.2671934 250 0 0 5.9959531 1.5071754 -60.528694 0
-0.64426094 8.0930462 1.2900302 250 0 0 5.8595028 0.56762236 -61.865944 0
-0.61629808 7.9640942 1.271926 250 0 0 5.1218519 -1.3638066 -63.852886 0
-0.62723988 7.8891048 1.2892823 250 0 0 5.32056 -1.3748797 -64.14827 0
-0.62787938 7.74999 1.3110372 250 0 0 5.4931312 -0.33802643 -65.098694 0
-0.59599739 7.6781263 1.3273681 250 0 0 5.6073885 -0.7596603 -65.272751 0
-0.61133707 7.5432248 1.3076488 250 0 0 5.5922399 -2.0641272 -64.856674 0
-0.60944831 7.4713302 1.310676 250 0 0 5.5667291 -2.1308913 -64.454506 0
-0.60463583 7.3418827 1.3169906 250 0 0 5.9741912 -2.5734634 -62.385231 0
-0.5915246 7.2943621 1.272542 250 0 0 6.4088936 -2.1273689 -61.343517 0
-0.61395907 7.1363659 1.3162621 250 0 0 5.9384294 0.027128249 -59.463242 0
-0.63757086 6.9839249 1.3155061 250 0 0 4.2512183 0.55955404 -60.385891 0
-0.62481439 6.9046035 1.3290473 250 0 0 3.7221031 -0.53158623 -61.35498 0
-0.59285736 6.7811298 1.3056555 250 0 0 2.7484882 -3.4232154 -63.833744 0
-0.60441417 6.719367 1.3075694 250 0 0 3.7834532 -3.3525271 -63.972546 0
-0.60988796 6.5744729 1.2879 250 0 0 4.8596873 -0.34451035 -65.279053 0
-0.59031057 6.4959235 1.3171484 250 0 0 5.511755 0.54441667 -66.188217 0
-0.59540576 6.3276486 1.3448254 250 0 0 6.2602773 -1.4002631 -65.791489 0
-0.58667731 6.2635603 1.3371937 250 0 0 6.0901399 -2.9551704 -65.29528 0
-0.59471279 6.125463 1.3153594 250 0 0 5.6315851 -2.388756 -64.087196 0
-0.59886193 6.0585575 1.3142118 250 0 0 5.4346523 -1.2494395 -63.259605 0
-0.60908723 5.9163518 1.3528268 250 0 0 3.7733431 -0.13212617 -62.771023 0
-0.60977 5.8430071 1.3552588 250 0 0 3.2222016 -0.040653333 -63.229599 0
-0.60395658 5.6981888 1.3553398 250 0 0 2.9008448 -1.346423 -64.26963 0
-0.62688386 5.6439004 1.3561387 250 0 0 1.997233 -2.4328744 -65.212479 0
-0.59950203 5.5156913 1.3535352 250 0 0 3.9282796 -1.3867278 -67.748413 0
-0.5892309 5.4468493 1.3399369 250 0 0 4.0674806 -0.24454944 -68.236099 0
-0.56698012 5.2841573 1.3843354 250 0 0 4.0580564 1.0145731 -68.674156 0
-0.56794381 5.2065897 1.3791268 250 0 0 4.2946353 0.51174176 -68.013245 0
-0.56332719 5.0477161 1.3777934 250 0 0 4.0960293 -0.84679276 -66.474449 0
-0.5587669 4.9748869 1.3447201 250 0 0 4.5560932 -1.2121247 -64.94799 0
-0.56842655 4.8441272 1.3766128 250 0 0 5.9622955 1.0653346 -62.565479 0
-0.57217783 4.7724266 1.3992583 250 0 0 4.8111343 1.1500062 -61.803246 0
-0.58825129 4.6523995 1.3882253 250 0 0 3.6433845 1.5567465 -62.812534 0
-0.5919556 4.5802131 1.4042789 250 0 0 2.9776444 1.1272384 -63.75544 0
-0.56677717 4.4474196 1.3472662 250 0 0 2.3429627 -0.73576862 -66.523605 0
-0.57286668 4.3720117 1.3920348 250 0 0 4.0992103 -0.059142333 -66.93586 0
-0.57570511 4.2431626 1.3713197 250 0 0 3.7760904 1.1714287 -69.182739 0
-0.54734182 4.0782347 1.4103205 250 0 0 4.1770325 0.97872901 -70.080765 0
-0.55378693 4.0055151 1.40863 250 0 0 4.1734858 -0.054735478 -69.66304 0
-0.56502718 3.8670354 1.3568124 250 0 0 3.8305418 -1.1551161 -68.885651 0
-0.56559551 3.7933486 1.3936782 250 0 0 5.0664096 -0.33886036 -69.134171 0
-0.58554417 3.6702902 1.3912722 250 0 0 4.9144096 1.2664031 -67.532814 0
-0.58587486 3.6035669 1.4245245 250 0 0 3.8821895 1.7932621 -67.217827 0
-0.59237051 3.4764504 1.405787 250 0 0 3.3835981 1.4289174 -67.780838 0
-0.59064889 3.4071851 1.4292737 250 0 0 3.2594473 1.033192 -68.552872 0
-0.59408802 3.2805364 1.4239789 250 0 0 1.699989 -2.6145623 -70.162376 0
-0.59520304 3.2255061 1.4189724 250 0 0 3.399893 -2.871109 -70.552475 0
-0.59716076 3.1013517 1.4145408 250 0 0 3.7983329 -1.7106013 -71.051788 0
-0.59355456 3.0347438 1.4351507 250 0 0 4.0623651 -1.077497 -71.656822 0
-0.58838785 2.8981886 1.43583 250 0 0 5.1708403 -1.5661385 -70.323242 0
-0.5902518 2.8309686 1.4285316 250 0 0 4.8685093 -2.0396781 -70.145691 0
-0.58893895 2.6900308 1.4294796 250 0 0 4.6279631 -3.6367171 -68.396446 0
-0.59225231 2.6239455 1.4191533 250 0 0 4.5838871 -3.8597605 -67.003876 0
-0.58913994 2.4917984 1.4355314 250 0 0 5.4498177 -2.1597767 -65.640877 0
-0.5870713 2.427526 1.4405923 250 0 0 4.6602349 -1.8187779 -64.935722 0
-0.5888707 2.2999952 1.4684085 250 0 0 3.8200691 -0.31806496 -65.886757 0
-0.58919388 2.2351155 1.4932091 250 0 0 3.5522709 -0.61136866 -66.418678 0
-0.57183027 2.1234853 1.444559 250 0 0 4.1649837 -0.80050695 -66.941925 0
-0.57869273 2.0536742 1.499611 250 0 0 3.970469 0.80554843 -67.22374 0
-0.56999421 1.9467285 1.4948591 250 0 0 4.0296812 1.7544028 -67.963745 0
-0.55665332 1.89021 1.5250763 250 0 0 3.3933332 2.6832356 -69.149551 0
-0.54702133 1.7789387 1.5091897 250 0 0 3.8674057 2.5733271 -67.904739 0
-0.54466259 1.7224617 1.5187865 250 0 0 3.5687771 2.3984888 -67.695343 0
-0.54429054 1.6143628 1.4995039 250 0 0 4.0606265 0.29235321 -65.924461 0
-0.54405582 1.5597385 1.5128386 250 0 0 4.1765947 0.12538789 -64.95623 0
-0.54235607 1.4609139 1.5117635 250 0 0 4.0495834 1.8313761 -63.359531 0
-0.537233 1.3696337 1.5513475 250 0 0 4.6839623 4.333961 -61.789856 0
-0.53564334 1.3115926 1.5726047 250 0 0 4.8103204 4.9133997 -57.706337 0
-0.51121783 1.2145447 1.591287 250 0 0 2.2618561 3.6403265 -50.810013 0
-0.4932206 1.1774571 1.5691071 250 0 0 1.7694699 4.1442924 -46.900742 0
-0.44730157 1.0895028 1.633333 250 0 0 1.0091397 5.5840292 -36.837437 0
-0.4245275 1.062108 1.6121329 250 0 0 0.66927987 4.3072395 -31.915264 0
-0.66766816 1.1218085 1.6387721 250 0 0 1.6785105 6.5942373 -23.014299 0
-0.64923221 1.1000266 1.6443973 250 0 0 2.3811228 7.2560134 -18.803242 0
-0.61374211 1.0602992 1.6346598 250 0 0 3.1620317 7.8912396 -10.848216 0
-0.59764922 1.0453862 1.6362606 250 0 0 3.9041522 8.1127539 -6.977035 0
-0.568721 1.0114702 1.6363939 250 0 0 4.8358169 7.4121342 1.3119621 0
-0.55556321 0.99295813 1.6328129 250 0 0 4.9164929 7.1383686 5.2590232 0
-0.54264826 0.96435803 1.6214637 250 0 0 5.1836662 6.0843391 11.459164 0
-0.53525335 0.94465065 1.6112036 250 0 0 5.5749736 5.9785347 13.195791 0
-0.51557523 0.90801048 1.6113185 250 0 0 7.0990453 6.2861443 15.448709 0
