ply
format ascii 1.0
comment PCL generated
element vertex 601
property float x
property float y
property float z
property uchar red
property uchar green
property uchar blue
property float nx
property float ny
property float nz
property float curvature
element camera 1
property float view_px
property float view_py
property float view_pz
property float x_axisx
property float x_axisy
property float x_axisz
property float y_axisx
property float y_axisy
property float y_axisz
property float z_axisx
property float z_axisy
property float z_axisz
property float focal
property float scalex
property float scaley
property float centerx
property float centery
property int viewportx
property int viewporty
property float k1
property float k2
end_header
0.014377981 -0.010594249 -0.0087094121 250 250 250 0.26525041 0.71947521 0.38679585 0
0.021722872 -0.016632648 -0.013215661 250 250 250 0.37114096 0.79974353 0.62049627 0
0.02616051 -0.020153245 -0.015310884 250 250 250 0.40432686 0.82681143 0.75486648 0
0.030447897 -0.023455651 -0.017163575 250 250 250 0.40613145 0.82592654 0.87999088 0
0.034188449 -0.026598427 -0.01813603 250 250 250 0.427811 0.83896488 1.0105766 0
0.037775584 -0.029554196 -0.018650688 250 250 250 0.43009934 0.79579818 1.1709868 0
0.041241478 -0.032373153 -0.019030228 250 250 250 0.48243573 0.68447924 1.3181548 0
0.044218011 -0.03491959 -0.01893284 250 250 250 0.53432024 0.52686346 1.4552457 0
0.047078148 -0.037360702 -0.018733002 250 250 250 0.53541285 0.31517673 1.603938 0
0.049549889 -0.039451882 -0.018497398 250 250 250 0.54972577 0.090486333 1.6956509 0
0.051418137 -0.04093121 -0.018205943 250 250 250 0.58100474 -0.090102658 1.7866608 0
0.053117581 -0.042258754 -0.018253012 250 250 250 0.67453575 -0.23732254 1.893407 0
0.054801948 -0.043673903 -0.018369287 250 250 250 0.74400818 -0.3579644 1.9836487 0
0.056407023 -0.044768352 -0.018473038 250 250 250 0.7781406 -0.46101016 2.0020645 0
0.058045536 -0.045458995 -0.018536443 250 250 250 0.91018128 -0.51937801 2.1655526 0
0.06026011 -0.04683942 -0.01940085 250 250 250 0.96463585 -0.57612598 2.3222919 0
0.062464625 -0.047923572 -0.020246767 250 250 250 1.1035047 -0.55246609 2.3540041 0
0.065050565 -0.048958112 -0.021004654 250 250 250 1.4483325 -0.57818222 2.4205365 0
0.068386361 -0.050246447 -0.022228576 250 250 250 1.7035897 -0.59629071 2.5701098 0
0.071739987 -0.050843403 -0.02345551 250 250 250 1.6450943 -0.41923767 2.6626828 0
0.075818732 -0.051365495 -0.023556933 250 250 250 2.0593238 -0.31044084 2.8143191 0
0.081054896 -0.052118819 -0.024883654 250 250 250 2.4830019 -0.31651333 2.9674344 0
0.086375676 -0.0523353 -0.026074123 250 250 250 2.5450523 -0.17029983 3.0867405 0
0.093444839 -0.052576847 -0.027881885 250 250 250 2.3853669 0.05325738 3.2773006 0
0.10064712 -0.052126214 -0.028816871 250 250 250 2.3436966 0.28338599 3.3775349 0
0.11030819 -0.052335445 -0.030229617 250 250 250 2.3443451 0.38264427 3.4891355 0
0.12035311 -0.051760055 -0.031537712 250 250 250 2.2440155 0.49863487 3.4327583 0
0.13094567 -0.050705872 -0.032717958 250 250 250 2.2045913 0.53762686 3.4482722 0
0.14391135 -0.049798995 -0.034900654 250 250 250 1.9983029 0.47203404 3.5298545 0
0.15692021 -0.047790352 -0.037020992 250 250 250 1.6314546 0.49460831 3.4420528 0
0.17064142 -0.04479387 -0.039173797 250 250 250 1.5186591 0.49743372 3.3392959 0
0.18575847 -0.04157526 -0.041349553 250 250 250 1.4981768 0.46006116 3.2555246 0
0.20272727 -0.038194351 -0.043391615 250 250 250 1.3936248 0.37548923 3.1441007 0
0.22045587 -0.034260821 -0.044594549 250 250 250 1.4547662 0.19900118 2.8616126 0
0.24033597 -0.030528763 -0.044863004 250 250 250 1.5493768 -0.12370422 2.4613447 0
0.26040545 -0.025768878 -0.041547891 250 250 250 1.7134525 -0.69093841 1.817001 0
0.28031605 -0.016334154 -0.037457742 250 250 250 1.7801937 -1.2231461 1.5665585 0
0.3018727 -0.010632976 -0.040326294 250 250 250 0.94098246 -1.2838049 1.6210995 0
0.32019308 0.00027276677 -0.036186196 250 250 250 1.0062966 -0.85411638 1.2116647 0
0.33979851 0.0090438044 -0.031662121 250 250 250 2.0034604 -0.87003899 1.0644692 0
0.36185479 0.013956893 -0.027461393 250 250 250 2.4683018 -0.88881344 0.74355477 0
0.38396004 0.018525481 -0.022238392 250 250 250 2.5475478 -1.0515567 0.1940648 0
0.40307549 0.02900493 -0.015910771 250 250 250 2.3688822 -1.3198681 -0.21602111 0
0.42183319 0.039779816 -0.011075227 250 250 250 2.0680237 -1.4785922 -0.060682379 0
0.44037908 0.049639791 -0.0083715916 250 250 250 1.7870157 -1.4302281 0.11298883 0
0.45873892 0.059397068 -0.0060194535 250 250 250 1.7568169 -1.2119299 0.20937887 0
0.47785041 0.067006685 -0.0039084824 250 250 250 1.7034576 -0.99762899 0.26227668 0
0.49682775 0.074920967 -0.0012634688 250 250 250 1.702997 -0.85439509 0.29077858 0
0.5161193 0.082838945 0.00091743754 250 250 250 1.6249328 -0.85970664 0.47364178 0
0.5354147 0.091387063 0.0029647683 250 250 250 1.5981988 -0.92681009 0.63436627 0
0.55475605 0.10082656 0.0050431383 250 250 250 2.0290363 -1.1297531 0.90330261 0
0.57576239 0.10957038 0.00568718 250 250 250 2.5348625 -1.4388913 1.2919621 0
0.59695297 0.11841828 0.0065173241 250 250 250 2.868818 -1.7249231 1.6994337 0
0.61825281 0.12767424 0.0054161903 250 250 250 2.9125097 -1.9960941 2.0771086 0
0.63973331 0.13740207 0.0044569653 250 250 250 2.9819839 -1.9914761 2.4588604 0
0.66224182 0.14709838 0.0037462276 250 250 250 3.2878063 -2.0432851 2.8935058 0
0.68577731 0.15575497 0.0039241486 250 250 250 3.7593937 -2.2977726 3.2523155 0
0.70959294 0.16474071 0.0036086163 250 250 250 3.4791634 -2.3911619 3.9001746 0
0.73071879 0.1793658 0.0053873421 250 250 250 3.1077359 -2.1065509 4.4749947 0
0.752042 0.19338661 0.0077492036 250 250 250 3.5846682 -1.9466361 5.7367163 0
0.77869725 0.19711936 0.0091866842 250 250 250 3.8331146 -1.8158631 6.9637952 0
0.80421108 0.20123546 0.013019616 250 250 250 3.8832157 -1.6420488 7.4278612 0
0.82759678 0.2077287 0.021789931 250 250 250 4.2723203 -1.9014385 7.822247 0
0.85022408 0.21880518 0.023149103 250 250 250 4.2388024 -2.4509652 8.7049055 0
0.87324756 0.2273016 0.023895141 250 250 250 3.4997263 -2.5847747 9.6900768 0
0.8940683 0.23582125 0.02950443 250 250 250 3.359185 -2.4874873 10.417459 0
0.91536933 0.24362996 0.030883469 250 250 250 3.421761 -2.6375329 10.971735 0
0.93686259 0.25166562 0.033659764 250 250 250 3.1614583 -2.5782614 11.403339 0
0.95955014 0.25887492 0.038407575 250 250 250 2.9496896 -2.922554 11.766701 0
0.98269415 0.26636398 0.040906474 250 250 250 2.3623292 -3.5394518 12.060626 0
1.0052055 0.27626416 0.043235511 250 250 250 1.6856663 -4.0306997 12.133048 0
1.0285163 0.28552642 0.046155956 250 250 250 1.2654355 -4.5150633 12.134568 0
1.0522782 0.29500091 0.045918033 250 250 250 1.0938704 -5.0391536 11.855138 0
1.0769486 0.30464092 0.045850229 250 250 250 0.99018538 -5.367095 11.487145 0
1.1018678 0.31585824 0.045965955 250 250 250 1.0248029 -5.5927091 10.978168 0
1.1275851 0.32739255 0.046216153 250 250 250 1.1153153 -5.7499523 10.531729 0
1.1544033 0.33910945 0.046308339 250 250 250 1.2113163 -5.8433647 9.9729528 0
1.1832741 0.34893531 0.046651889 250 250 250 1.0743947 -5.7983637 9.2818737 0
1.2100691 0.36752802 0.04707624 250 250 250 0.89904803 -5.6291022 8.1980543 0
1.235337 0.39461344 0.047263809 250 250 250 0.82251829 -5.0537691 8.0697861 0
1.2624662 0.40711746 0.05093658 250 250 250 0.99146801 -4.2613616 8.3886089 0
1.2926037 0.40749058 0.056227122 250 250 250 1.6352739 -3.8234415 8.3145132 0
1.321962 0.41116756 0.060601696 250 250 250 1.9818774 -3.5461879 7.3234167 0
1.3495811 0.41904032 0.069863267 250 250 250 1.8569413 -3.3471222 6.5140738 0
1.3757458 0.42677203 0.076242372 250 250 250 1.3512422 -3.5095952 6.1341357 0
1.4007108 0.43536243 0.08097332 250 250 250 0.7802068 -3.405416 5.5215974 0
1.4254968 0.4443019 0.085256681 250 250 250 0.97543436 -3.3285334 4.8816404 0
1.4504613 0.45275012 0.087920092 250 250 250 1.204098 -3.2340136 4.3858042 0
1.4755691 0.46037015 0.088975444 250 250 250 0.98625088 -2.9840341 3.9426618 0
1.5003655 0.46904272 0.090427309 250 250 250 0.78145003 -2.6799946 3.5138183 0
1.5246025 0.47885561 0.090117656 250 250 250 0.86084437 -2.4797833 3.1045861 0
1.5487953 0.48877028 0.089519672 250 250 250 1.1485538 -2.1531899 2.8472478 0
1.5741018 0.49522343 0.088723183 250 250 250 1.3059388 -1.8077589 2.8004313 0
1.6001673 0.50129652 0.087316535 250 250 250 1.2867845 -1.6705037 2.6332426 0
1.6262851 0.50856686 0.086416431 250 250 250 1.4546161 -1.6290784 2.4490576 0
1.6531885 0.51551574 0.085492864 250 250 250 1.5166856 -1.7215689 2.3559344 0
1.6802838 0.52309543 0.084725633 250 250 250 1.5995471 -1.8466372 2.3525307 0
1.7085612 0.53020114 0.083310112 250 250 250 1.6665394 -2.0210292 2.3980405 0
1.737945 0.53557533 0.08177004 250 250 250 1.7027671 -2.1422396 2.3439829 0
1.7668059 0.54534918 0.083343357 250 250 250 1.9642853 -2.217834 2.1187894 0
1.7961473 0.55270088 0.085047387 250 250 250 1.9246417 -2.1031463 2.4282663 0
1.8240695 0.56430286 0.091875076 250 250 250 2.1939621 -1.8710868 2.7396054 0
1.8553727 0.5653069 0.092535332 250 250 250 2.479851 -2.0138915 3.4312267 0
1.8858615 0.56715381 0.094762675 250 250 250 2.6739831 -2.0160701 3.4796643 0
1.9132433 0.57461751 0.10322193 250 250 250 2.8387632 -2.0257719 3.6812975 0
1.9406589 0.58206356 0.10964884 250 250 250 2.6772349 -2.2526457 4.3946443 0
1.967927 0.58877182 0.11348404 250 250 250 2.2874436 -2.4459679 4.9788013 0
1.9945643 0.59600031 0.11744427 250 250 250 2.0988324 -2.5984371 5.3977332 0
2.020576 0.60319102 0.1208559 250 250 250 1.9420834 -2.8118272 5.710959 0
2.0462768 0.6117658 0.12455193 250 250 250 1.7488407 -2.9743772 6.0780592 0
2.0719416 0.62007773 0.12660001 250 250 250 1.5780429 -3.2769942 6.4833531 0
2.0973041 0.62895685 0.12715769 250 250 250 1.2590512 -3.4781046 6.8165174 0
2.1223245 0.63902688 0.12725118 250 250 250 0.97985017 -3.5602682 7.0352087 0
2.1469436 0.65115619 0.12732488 250 250 250 1.1094526 -3.6511152 7.1650519 0
2.1718991 0.66277295 0.12690037 250 250 250 1.2114037 -3.796046 7.4480777 0
2.1977687 0.6735912 0.12508358 250 250 250 0.93105847 -3.9665427 7.5878878 0
2.2231648 0.6879344 0.12303746 250 250 250 0.6347456 -4.0005331 7.5675898 0
2.2481334 0.70623404 0.12140057 250 250 250 0.549766 -3.9114704 7.6170878 0
2.2745206 0.7224468 0.11964475 250 250 250 0.73607659 -3.8293633 7.7803173 0
2.3020184 0.73664266 0.11811772 250 250 250 0.88345176 -3.8293633 7.7803173 0
2.3308117 0.75046813 0.11876627 250 250 250 0.82782888 -3.8453488 7.5253696 0
2.3593216 0.76763564 0.12105617 250 250 250 0.77982891 -3.8970511 7.2213087 0
2.3882847 0.78201699 0.12776338 250 250 250 0.68038893 -3.5304043 7.3906746 0
2.4173121 0.7943998 0.13389021 250 250 250 0.92877454 -3.2176836 7.3752551 0
2.4462006 0.80541962 0.14026773 250 250 250 1.5236857 -3.2697527 6.740869 0
2.4747329 0.82034826 0.1472785 250 250 250 1.9960582 -3.337651 6.0688324 0
2.5018184 0.83344668 0.15544958 250 250 250 1.8953081 -3.3562586 6.0338569 0
2.5290732 0.84116161 0.15851986 250 250 250 1.3049144 -3.4298556 5.9706931 0
2.5548687 0.85746336 0.1620082 250 250 250 1.1782787 -3.2961414 5.2778735 0
2.5808144 0.87353009 0.16600674 250 250 250 1.7890217 -3.2606468 4.8424969 0
2.6070359 0.8837443 0.16921282 250 250 250 2.1313772 -3.1644657 4.682312 0
2.6331129 0.89281535 0.17139189 250 250 250 1.9834055 -2.9991872 4.3670759 0
2.6580343 0.90611917 0.17560562 250 250 250 1.9429309 -2.6821153 4.1276655 0
2.6832097 0.91821951 0.17637827 250 250 250 2.066258 -2.4327428 4.1677313 0
2.7084172 0.92587358 0.17144872 250 250 250 2.0281398 -2.1463053 4.1315179 0
2.7340598 0.93712652 0.16817625 250 250 250 2.0417504 -1.7157959 3.7276068 0
2.7612977 0.95141155 0.16581488 250 250 250 2.3586485 -1.4342269 3.3598061 0
2.788985 0.96073228 0.16278398 250 250 250 2.5903614 -1.321179 3.211272 0
2.8171725 0.97107255 0.16031346 250 250 250 2.6905773 -1.1711175 2.8697181 0
2.8457072 0.98306733 0.15819821 250 250 250 2.9766896 -1.0143154 2.6828766 0
2.8744266 0.99508154 0.15602259 250 250 250 3.5432551 -0.82421333 2.5807321 0
2.9040425 1.0064737 0.15470178 250 250 250 4.172368 -0.54349083 2.4546292 0
2.9354477 1.0227847 0.14870922 250 250 250 5.008101 -0.69631118 1.7772533 0
2.9551957 1.0102681 0.14739007 250 250 250 5.5794601 -0.59670132 2.496208 0
2.9859238 1.0241232 0.146843 250 250 250 4.4390607 0.38282725 2.7122834 0
3.0223439 1.0506595 0.15334632 250 250 250 5.2469068 0.79954672 2.4094863 0
3.0492513 1.0528114 0.16678654 250 250 250 7.0786471 0.37853366 2.1695688 0
3.0728962 1.0447667 0.16429892 250 250 250 6.9946141 0.21663292 2.1495845 0
3.103967 1.0558996 0.1698553 250 250 250 6.2231879 0.14759186 1.8198518 0
3.1340446 1.0680455 0.17658593 250 250 250 6.5031652 -0.71137941 1.1359283 0
3.1575983 1.065671 0.18532729 250 250 250 6.3882022 -1.2016358 0.71746522 0
3.1820824 1.0668912 0.19406746 250 250 250 5.5105076 -1.1583855 -0.18434583 0
3.2111661 1.0775776 0.19675989 250 250 250 5.5336142 -1.5044692 -1.1787684 0
3.238277 1.080752 0.19953451 250 250 250 5.7585459 -1.9935883 -1.6736332 0
3.2644105 1.0812083 0.20294859 250 250 250 5.3877692 -2.1475747 -2.07073 0
3.2910733 1.0858678 0.20686662 250 250 250 4.9493942 -2.2041733 -2.9591229 0
3.317863 1.088715 0.20766005 250 250 250 4.9611759 -2.247046 -3.8863988 0
3.3450878 1.0913366 0.20594159 250 250 250 5.0150366 -2.1421952 -4.927568 0
3.3728187 1.0936317 0.20426406 250 250 250 4.8371129 -2.0021737 -6.0376945 0
3.4003026 1.0950193 0.20127109 250 250 250 4.4713836 -1.7760661 -7.3226542 0
3.429399 1.0984104 0.19815665 250 250 250 4.0802217 -1.4134961 -8.6622992 0
3.4607835 1.1035863 0.19621038 250 250 250 3.9542608 -1.0242842 -10.410396 0
3.4911175 1.1061965 0.19374128 250 250 250 4.0343776 -0.74167067 -12.212338 0
3.5156937 1.1042526 0.18546914 250 250 250 4.0298233 -0.18511455 -13.378896 0
3.5452631 1.1080667 0.1846831 250 250 250 3.9079008 0.94035494 -14.764401 0
3.5746729 1.1107717 0.18621989 250 250 250 4.3560071 1.8254766 -16.386116 0
3.6024086 1.1121192 0.18753019 250 250 250 4.7258115 2.6211317 -18.359972 0
3.6353986 1.1157801 0.19052117 250 250 250 5.334641 3.0761404 -20.296793 0
3.6650527 1.1129861 0.19721243 250 250 250 5.9901605 2.9815786 -21.885498 0
3.6876483 1.1055762 0.20411579 250 250 250 5.3652034 3.022213 -23.315775 0
3.7105856 1.0987688 0.20882989 250 250 250 4.028646 3.2259614 -25.28582 0
3.7421968 1.100747 0.21316266 250 250 250 3.8939736 3.0098805 -27.247192 0
3.7663221 1.0910829 0.21567614 250 250 250 4.0691204 2.7688992 -28.424574 0
3.790499 1.0818623 0.21813519 250 250 250 3.7967021 2.6273077 -29.803715 0
3.8143082 1.0733117 0.21968758 250 250 250 3.6396775 2.3959556 -31.317982 0
3.8383842 1.0647575 0.2182983 250 250 250 3.8385026 2.2220364 -32.916039 0
3.8625855 1.0555543 0.21654065 250 250 250 4.3223333 2.2406404 -34.218052 0
3.8866034 1.0458215 0.21462627 250 250 250 4.7495651 2.3648615 -35.534718 0
3.9095228 1.0356784 0.21279398 250 250 250 4.2645597 2.821038 -36.694553 0
3.9327822 1.0253705 0.20928934 250 250 250 3.1301463 3.4049807 -38.014217 0
3.9585633 1.014794 0.20486303 250 250 250 2.6565187 3.6586778 -39.195908 0
3.984514 1.0034833 0.20060028 250 250 250 2.8189688 3.5721328 -39.872429 0
4.0105672 0.99172056 0.19686757 250 250 250 2.6520619 3.6390357 -40.258091 0
4.0368538 0.98027772 0.19321628 250 250 250 2.4086773 3.7096505 -40.961258 0
4.0639343 0.96769029 0.18985195 250 250 250 2.4974627 3.4637535 -41.800339 0
4.0921326 0.95342141 0.18871319 250 250 250 2.5996931 3.1909626 -42.449093 0
4.1197562 0.93916237 0.18804401 250 250 250 2.0341609 3.5077708 -42.59676 0
4.1475363 0.92523509 0.18694307 250 250 250 1.8859491 3.6191409 -42.930962 0
4.1753364 0.91088355 0.19101135 250 250 250 2.5929618 3.1014967 -43.433968 0
4.1992316 0.89814001 0.19453464 250 250 250 2.1662552 3.0428045 -43.565674 0
4.2253718 0.88720435 0.19611956 250 250 250 1.0744128 3.4182749 -43.977383 0
4.2520714 0.87562424 0.19641566 250 250 250 1.3133446 3.0801349 -44.169827 0
4.274642 0.86599326 0.19710353 250 250 250 1.8270773 2.6977794 -44.313244 0
4.2977505 0.85606229 0.19621356 250 250 250 1.9088593 2.8783627 -44.665417 0
4.3217497 0.84510291 0.19372033 250 250 250 2.0969956 3.0251589 -44.646259 0
4.3438492 0.83541286 0.19122364 250 250 250 2.0207849 3.1271384 -44.930202 0
4.3677807 0.82562643 0.18736264 250 250 250 1.5797398 3.5722616 -45.506824 0
4.3916578 0.81545395 0.18268062 250 250 250 1.0239702 4.123034 -45.81834 0
4.4153295 0.80539858 0.17678116 250 250 250 0.86087322 4.3638062 -46.533947 0
4.4392152 0.79450506 0.17073183 250 250 250 0.92430168 4.4567928 -47.42524 0
4.4638166 0.78271949 0.16461471 250 250 250 0.83184081 4.4710612 -48.359005 0
4.4887786 0.77069491 0.15850486 250 250 250 0.66278255 4.4448185 -49.187237 0
4.5142102 0.75816977 0.15279809 250 250 250 0.31398708 4.6164489 -49.698872 0
4.5388002 0.74644512 0.14694668 250 250 250 -0.61996287 4.8315415 -50.306087 0
4.5654087 0.73650122 0.14059404 250 250 250 -1.2993332 4.8374634 -51.825619 0
4.593616 0.72367811 0.13510355 250 250 250 -1.379065 4.9527979 -52.759968 0
4.6199965 0.71190494 0.13141063 250 250 250 -2.1657553 5.4648075 -53.22842 0
4.6461315 0.70049721 0.12764461 250 250 250 -3.2055297 6.0059643 -53.880505 0
4.6712499 0.69017774 0.12342434 250 250 250 -3.8715935 6.2615056 -55.016556 0
4.6976018 0.67783135 0.12119259 250 250 250 -3.2083719 6.0570612 -56.166695 0
4.723032 0.66411996 0.12051405 250 250 250 -2.4513535 5.7616253 -56.615379 0
4.7459331 0.65118426 0.12131998 250 250 250 -3.1539433 5.8642459 -57.096359 0
4.7681613 0.63839829 0.11874548 250 250 250 -5.0850096 6.4268584 -58.405384 0
4.7906613 0.62552691 0.11629228 250 250 250 -5.2709355 6.5789008 -59.53775 0
4.8126626 0.61232805 0.11377434 250 250 250 -4.4566245 6.5123763 -60.037025 0
4.8325534 0.59767908 0.11164487 250 250 250 -4.6000104 6.6426673 -60.800293 0
4.8522067 0.58307737 0.10944405 250 250 250 -5.343205 6.7391405 -61.85807 0
4.8717456 0.56821525 0.10655289 250 250 250 -5.4671726 6.640893 -62.604488 0
4.8906555 0.55281794 0.10310753 250 250 250 -5.3566799 6.5274234 -63.109882 0
4.9084625 0.53698432 0.099036753 250 250 250 -5.5038228 6.3032322 -63.813442 0
4.9260387 0.52090257 0.09493316 250 250 250 -5.791728 6.0573401 -64.640953 0
4.9437242 0.50433081 0.090713538 250 250 250 -5.7950935 5.6071892 -65.150932 0
4.9620419 0.48596022 0.086196065 250 250 250 -5.6568303 5.2604051 -65.084427 0
4.9785938 0.46696165 0.079172298 250 250 250 -6.6705141 5.4178352 -65.285744 0
4.9948435 0.44734922 0.072177403 250 250 250 -8.456646 6.0715022 -66.340508 0
5.0120373 0.42790827 0.064898029 250 250 250 -9.6281128 6.3827834 -67.663895 0
5.030664 0.40800411 0.059643548 250 250 250 -8.528244 6.0554376 -68.466614 0
5.0499883 0.38618946 0.058143944 250 250 250 -6.3459015 5.2427206 -68.779816 0
5.0686531 0.36409089 0.058578711 250 250 250 -5.7888932 5.2000675 -68.722412 0
5.0869303 0.34237027 0.056488141 250 250 250 -7.17067 5.4989152 -69.707245 0
5.1073642 0.31839013 0.056027375 250 250 250 -6.1650186 4.9929943 -70.155418 0
5.1259403 0.29694828 0.056125887 250 250 250 -4.9929948 4.5216427 -69.833931 0
5.144371 0.27587351 0.055845875 250 250 250 -5.760747 5.23946 -70.043449 0
5.1625948 0.25477064 0.054887649 250 250 250 -6.308569 5.465075 -70.279327 0
5.1803718 0.23378941 0.053512786 250 250 250 -5.8796773 4.8269539 -70.362389 0
5.1979747 0.21293068 0.052101031 250 250 250 -6.1760249 4.6582069 -70.483521 0
5.2157331 0.191999 0.04948052 250 250 250 -7.1620417 4.8877668 -70.510452 0
5.2338662 0.17087205 0.045040298 250 250 250 -7.4620633 4.5355287 -70.534424 0
5.2523031 0.14984076 0.040091172 250 250 250 -7.1104174 4.0009499 -70.560753 0
5.2707014 0.12892853 0.034445234 250 250 250 -6.9284558 3.7165308 -70.869057 0
5.2898531 0.10708044 0.028552381 250 250 250 -6.6000071 3.3659995 -71.483177 0
5.3090611 0.084726416 0.022927701 250 250 250 -6.2454381 2.9971251 -71.978622 0
5.3285551 0.061930064 0.017263526 250 250 250 -6.5956454 2.815948 -72.63681 0
5.3489351 0.038991231 0.011291313 250 250 250 -6.9000249 2.7582138 -73.244522 0
5.3693695 0.0156164 0.0041009123 250 250 250 -6.8719802 2.5653667 -73.95359 0
5.3907833 -0.0084726866 0.0021738431 250 250 250 -6.307209 3.1461747 -73.91156 0
5.410799 -0.029749734 -0.0055844318 250 250 250 -7.5125117 4.112186 -73.733719 0
5.4311371 -0.051261093 -0.012033742 250 250 250 -7.382432 4.4731255 -74.060051 0
5.4485531 -0.072785944 -0.018116815 250 250 250 -7.3201013 4.845758 -74.498146 0
5.4663076 -0.095444083 -0.021159742 250 250 250 -7.1716976 5.0375667 -75.625336 0
5.4834409 -0.11898826 -0.021010539 250 250 250 -6.6870246 5.0932775 -75.843857 0
5.4998426 -0.14211413 -0.020876573 250 250 250 -7.2100568 5.2852483 -76.02681 0
5.5154414 -0.1647189 -0.024071222 250 250 250 -8.4375372 5.6104779 -76.71656 0
5.5306349 -0.18615367 -0.027830737 250 250 250 -8.5622616 5.6836753 -77.287643 0
5.5448971 -0.20697293 -0.03193095 250 250 250 -7.9576168 5.6427855 -77.570686 0
5.5573955 -0.22792681 -0.035670441 250 250 250 -7.6657925 5.7510443 -78.065331 0
5.5691667 -0.2487064 -0.040745787 250 250 250 -7.81569 5.9749832 -78.722595 0
5.5804915 -0.26917878 -0.046466168 250 250 250 -7.6379972 6.0106134 -79.580406 0
5.5910668 -0.29004306 -0.052266326 250 250 250 -6.9032474 5.9892282 -80.042992 0
5.6007214 -0.31229243 -0.058629889 250 250 250 -6.4030581 5.9171529 -80.194115 0
5.610209 -0.33451992 -0.064649068 250 250 250 -6.5305438 5.9696803 -80.423439 0
5.6194005 -0.35704097 -0.072329938 250 250 250 -7.2760253 6.173625 -80.874786 0
5.6284533 -0.37970382 -0.080220811 250 250 250 -7.894104 6.4950113 -81.249306 0
5.637229 -0.40528849 -0.089427397 250 250 250 -8.4564466 6.5584569 -81.596886 0
5.6460133 -0.43161431 -0.097646363 250 250 250 -8.1410484 6.2370996 -81.71315 0
5.6546769 -0.4586691 -0.10610989 250 250 250 -7.4635019 5.4583387 -81.773811 0
5.6634884 -0.48592183 -0.11314163 250 250 250 -6.3454862 4.5508685 -82.254021 0
5.6729741 -0.51337552 -0.11178405 250 250 250 -4.937994 4.0759454 -81.902679 0
5.682651 -0.53985029 -0.11482138 250 250 250 -5.803617 4.6172705 -81.399513 0
5.691062 -0.56721568 -0.1218399 250 250 250 -7.1591811 5.2188363 -81.976791 0
5.6963029 -0.59803379 -0.12687087 250 250 250 -5.9335995 4.3941612 -82.226486 0
5.7065573 -0.62407118 -0.12213475 250 250 250 -3.7737443 3.4028804 -81.925041 0
5.7184067 -0.64835942 -0.11707973 250 250 250 -4.1385274 3.7494621 -81.359161 0
5.7278595 -0.6747241 -0.12062643 250 250 250 -6.1996284 4.27877 -81.1549 0
5.7385912 -0.69943684 -0.12521002 250 250 250 -7.3828335 4.3996634 -81.093254 0
5.7494802 -0.72393078 -0.13067149 250 250 250 -7.1976843 4.075398 -80.913834 0
5.7604427 -0.74847692 -0.13609327 250 250 250 -6.718164 3.7407908 -80.697617 0
5.7712374 -0.77350175 -0.14164655 250 250 250 -6.6170239 3.4476953 -80.45977 0
5.7818031 -0.79886901 -0.14952634 250 250 250 -7.2030153 3.2614138 -80.40258 0
5.79281 -0.82378453 -0.1579885 250 250 250 -8.0412207 3.1840031 -80.876328 0
5.8049502 -0.84842962 -0.16720751 250 250 250 -8.3510275 3.1117148 -81.378975 0
5.8170595 -0.8739121 -0.17641091 250 250 250 -7.7716389 3.0045376 -81.571701 0
5.8277521 -0.9028073 -0.18737745 250 250 250 -7.6614861 2.6826937 -81.776886 0
5.8393788 -0.93185395 -0.19640507 250 250 250 -8.0489492 2.4668331 -82.035027 0
5.8517404 -0.96055681 -0.2068464 250 250 250 -8.9927683 2.402869 -82.367851 0
5.8642669 -0.98974115 -0.2174274 250 250 250 -9.9009075 2.2936459 -83.110123 0
5.8792586 -1.0154001 -0.22067448 250 250 250 -9.7980165 2.3177316 -83.482376 0
5.8955154 -1.041339 -0.22776085 250 250 250 -9.8864202 2.8596499 -83.184952 0
5.9113169 -1.0668409 -0.23524462 250 250 250 -9.5369987 3.2580888 -83.685478 0
5.9245501 -1.0934572 -0.24153025 250 250 250 -8.7848835 3.4254572 -84.664413 0
5.9366302 -1.1220059 -0.24221301 250 250 250 -7.6270871 3.3150778 -85.52932 0
5.9483213 -1.1508877 -0.24074382 250 250 250 -6.9217 3.2376258 -85.331497 0
5.9594307 -1.1795536 -0.24294423 250 250 250 -7.8390131 3.4388442 -85.193436 0
5.9712968 -1.2060572 -0.24796361 250 250 250 -9.1413288 3.6250854 -86.175766 0
5.9834261 -1.2306503 -0.24711397 250 250 250 -8.8690729 3.6723287 -86.42907 0
5.9947877 -1.2553512 -0.24996248 250 250 250 -8.3873796 3.7174308 -85.835754 0
6.0052648 -1.2795165 -0.25644284 250 250 250 -8.221694 3.9035413 -85.447495 0
6.0137954 -1.3039204 -0.2634275 250 250 250 -8.2453651 3.9859023 -85.439407 0
6.0211134 -1.3280232 -0.27047935 250 250 250 -8.2375727 4.002068 -85.327522 0
6.0279183 -1.3521136 -0.27971748 250 250 250 -8.5946665 4.0798454 -85.548843 0
6.0334897 -1.3762141 -0.28913864 250 250 250 -8.5312119 3.9792926 -85.920471 0
6.0383592 -1.4009951 -0.29832667 250 250 250 -8.1881227 3.7558172 -86.206001 0
6.0417604 -1.4268268 -0.30707589 250 250 250 -8.285141 3.8120611 -86.254227 0
6.0450234 -1.4534088 -0.31659165 250 250 250 -8.8333292 3.858938 -86.552544 0
6.0484571 -1.4803362 -0.32576728 250 250 250 -9.0119705 4.0164986 -86.577339 0
6.051888 -1.5090126 -0.33521563 250 250 250 -8.9423294 4.150775 -86.307632 0
6.0553002 -1.5381844 -0.34601694 250 250 250 -8.7568779 4.001884 -86.180099 0
6.0582471 -1.5686346 -0.34956664 250 250 250 -8.0295744 4.028583 -85.78389 0
6.0627708 -1.5995756 -0.35557693 250 250 250 -8.4319315 4.6576037 -84.887474 0
6.0679221 -1.6297808 -0.3643477 250 250 250 -9.3722095 5.4908967 -84.598518 0
6.0724525 -1.6631287 -0.36337948 250 250 250 -8.7291098 5.1978559 -84.551636 0
6.0780401 -1.694711 -0.36232477 250 250 250 -7.9003768 4.6092072 -83.719467 0
6.0845561 -1.7236772 -0.3678858 250 250 250 -8.4125299 4.828506 -83.207542 0
6.0923095 -1.7526451 -0.36939871 250 250 250 -8.4759893 5.1622758 -82.66124 0
6.1004415 -1.7812033 -0.37147364 250 250 250 -7.895442 4.8154869 -81.928467 0
6.1089606 -1.808966 -0.3734321 250 250 250 -7.3904271 4.4372873 -81.471336 0
6.1176124 -1.8362504 -0.37761304 250 250 250 -7.6042361 4.468689 -81.23201 0
6.1274033 -1.8632356 -0.38183492 250 250 250 -7.5184283 4.4908099 -80.914055 0
6.1373768 -1.8901839 -0.38706931 250 250 250 -6.9994583 4.4845643 -80.235046 0
6.1474299 -1.9167386 -0.39444005 250 250 250 -6.6326933 4.5452042 -79.844368 0
6.1575031 -1.9431248 -0.40279144 250 250 250 -6.3597269 4.8384547 -79.646622 0
6.1672168 -1.9703586 -0.41214728 250 250 250 -6.314815 5.2017932 -79.687126 0
6.1772504 -1.9976673 -0.42095023 250 250 250 -6.3304229 5.3477917 -79.856903 0
6.1874609 -2.0256655 -0.42983231 250 250 250 -6.4287763 5.2748675 -79.673294 0
6.1979852 -2.0537188 -0.43841031 250 250 250 -6.2715759 5.062912 -79.541977 0
6.208734 -2.0822499 -0.44719613 250 250 250 -5.9920654 4.7216344 -79.152458 0
6.2196279 -2.1108623 -0.45622775 250 250 250 -5.8519378 4.2724609 -79.22789 0
6.2306538 -2.1398773 -0.46325713 250 250 250 -5.6400084 3.9686713 -79.411476 0
6.2420082 -2.1697834 -0.46748444 250 250 250 -5.9564505 4.4422307 -78.701393 0
6.2532334 -2.1988564 -0.47470507 250 250 250 -7.1328726 5.3672042 -78.381371 0
6.2658 -2.2268467 -0.48456812 250 250 250 -7.2786121 5.5412154 -78.755859 0
6.2773666 -2.2555344 -0.48968962 250 250 250 -6.1702523 5.0016651 -79.055916 0
6.2843156 -2.2836697 -0.49289092 250 250 250 -5.6725502 4.9743853 -78.934967 0
6.2903647 -2.3108454 -0.49624258 250 250 250 -6.7609229 5.4539304 -78.796799 0
6.2998571 -2.3379884 -0.50045019 250 250 250 -7.6152616 5.8523717 -79.484383 0
6.3110986 -2.3664436 -0.50591218 250 250 250 -6.9932513 5.8825088 -79.778465 0
6.315176 -2.3919668 -0.51069999 250 250 250 -6.2984657 6.031002 -79.484352 0
6.3188748 -2.4173901 -0.51633185 250 250 250 -6.4303489 6.2123041 -79.518845 0
6.3232303 -2.4435241 -0.52339196 250 250 250 -6.798562 6.3404965 -79.622276 0
6.3276787 -2.469666 -0.53103799 250 250 250 -7.1876116 6.4898973 -79.744934 0
6.332026 -2.4957721 -0.53929585 250 250 250 -7.5673857 6.7995405 -79.745132 0
6.3373814 -2.5228927 -0.5489068 250 250 250 -7.9550309 7.1347919 -79.844376 0
6.3433123 -2.5506496 -0.55955821 250 250 250 -7.419425 7.2021847 -79.69072 0
6.3467193 -2.579175 -0.56996471 250 250 250 -7.0421429 7.1730881 -79.222328 0
6.3498464 -2.6080196 -0.58019602 250 250 250 -6.9611521 7.0623083 -79.273697 0
6.3541322 -2.6382208 -0.5905779 250 250 250 -6.4469008 6.7604837 -79.237961 0
6.3567009 -2.6682117 -0.59981048 250 250 250 -5.4899845 6.1253476 -78.799889 0
6.3543591 -2.6953161 -0.6046164 250 250 250 -5.9340506 6.3869681 -77.968292 0
6.3582497 -2.7244346 -0.61059433 250 250 250 -6.77387 7.2737689 -77.968521 0
6.3624716 -2.7544353 -0.61830169 250 250 250 -6.2397275 7.486753 -77.379105 0
6.3662224 -2.7849777 -0.6224305 250 250 250 -4.9098096 6.8585634 -77.10672 0
6.3671002 -2.8130395 -0.62473673 250 250 250 -4.4287891 6.826189 -76.245964 0
6.3680291 -2.8407691 -0.62828803 250 250 250 -5.6035032 7.2492929 -75.708313 0
6.3739328 -2.8685162 -0.63321441 250 250 250 -6.3558335 7.2737641 -75.472801 0
6.3796701 -2.895272 -0.63839465 250 250 250 -6.2548871 7.0054374 -74.855553 0
6.3848801 -2.9216466 -0.64321768 250 250 250 -6.2254658 6.9654374 -74.414413 0
6.3899446 -2.9480612 -0.64892805 250 250 250 -6.4721198 7.1441851 -74.04451 0
6.3943095 -2.9744682 -0.65546459 250 250 250 -7.2893405 7.1835017 -74.004387 0
6.3983669 -3.0012047 -0.66359413 250 250 250 -8.379302 7.1188631 -74.331581 0
6.4043188 -3.0267308 -0.672378 250 250 250 -8.9870768 7.3290658 -74.676445 0
6.4126458 -3.0528493 -0.68314815 250 250 250 -8.534235 7.3129807 -74.781677 0
6.4204574 -3.0794013 -0.69353002 250 250 250 -7.6626635 7.1628137 -74.607407 0
6.4280744 -3.1066034 -0.70338285 250 250 250 -7.6438994 7.152956 -74.681343 0
6.4363565 -3.1337171 -0.71301901 250 250 250 -8.2134151 7.2951102 -74.879105 0
6.4448166 -3.1612298 -0.72314495 250 250 250 -8.8348961 7.3658276 -75.306061 0
6.4533024 -3.1897967 -0.73362738 250 250 250 -9.1566582 7.0845551 -75.967072 0
6.4661198 -3.2176037 -0.73514634 250 250 250 -8.8569794 6.947144 -76.250183 0
6.4767098 -3.2459137 -0.74135095 250 250 250 -9.7666168 7.6914001 -75.774162 0
6.4860454 -3.2777722 -0.75064349 250 250 250 -11.328499 8.3264265 -76.19014 0
6.4973459 -3.308084 -0.75483096 250 250 250 -11.315911 8.0405407 -77.084427 0
6.5093513 -3.3377457 -0.75502694 250 250 250 -10.182015 7.4013023 -77.467316 0
6.5209174 -3.3680129 -0.75397891 250 250 250 -9.8861437 7.3564911 -76.976318 0
6.5298138 -3.3947661 -0.761742 250 250 250 -11.32915 7.7969379 -76.918861 0
6.5395532 -3.4204185 -0.76944292 250 250 250 -11.743108 7.9480991 -77.965973 0
6.5514383 -3.4459207 -0.77381241 250 250 250 -10.232903 8.0386267 -78.449989 0
6.5596657 -3.473686 -0.77934015 250 250 250 -8.8924332 8.2121019 -78.535011 0
6.5684705 -3.5006046 -0.78400069 250 250 250 -8.2598925 8.1417141 -78.639511 0
6.5761375 -3.5274684 -0.7913388 250 250 250 -8.7262793 8.1475477 -78.695724 0
6.5848408 -3.553745 -0.79944056 250 250 250 -9.2239313 8.1390066 -79.089264 0
6.5946054 -3.5795157 -0.80798924 250 250 250 -9.086566 8.0727949 -79.107109 0
6.6036124 -3.6069982 -0.8179453 250 250 250 -8.8623056 7.9195461 -78.906357 0
6.6128068 -3.634599 -0.82767129 250 250 250 -8.7254772 7.7609673 -78.62841 0
6.6220198 -3.6625423 -0.83750045 250 250 250 -8.9629936 7.7403708 -78.341225 0
6.6307144 -3.6912546 -0.8485052 250 250 250 -9.4253254 7.8415327 -78.247894 0
6.6401887 -3.7200954 -0.85866314 250 250 250 -9.1214933 7.7511287 -78.288399 0
6.6503234 -3.7497385 -0.86612481 250 250 250 -8.1860714 7.4888401 -77.582977 0
6.6553869 -3.7806494 -0.87225676 250 250 250 -8.3769236 7.6182008 -76.68647 0
6.6616974 -3.8103311 -0.87951893 250 250 250 -9.5087662 8.4334278 -76.748947 0
6.6686263 -3.8404758 -0.88792777 250 250 250 -9.5893812 8.7491837 -76.726753 0
6.6760569 -3.8714416 -0.89071411 250 250 250 -8.2117805 8.0782709 -76.68293 0
6.6839123 -3.9028659 -0.89192581 250 250 250 -7.3727469 7.8196654 -75.99501 0
6.6918283 -3.9322836 -0.89476961 250 250 250 -8.2057419 8.1325188 -75.472618 0
6.7028394 -3.960007 -0.89990616 250 250 250 -8.5645752 8.4297829 -75.091118 0
6.7141218 -3.9870768 -0.90536195 250 250 250 -7.9446464 8.4437704 -74.340294 0
6.7236319 -4.0128646 -0.91036779 250 250 250 -7.5915942 8.4429979 -73.90213 0
6.7332649 -4.0388513 -0.91612417 250 250 250 -7.7444339 8.7012224 -74.012825 0
6.7443128 -4.0658693 -0.92477953 250 250 250 -7.961956 8.7233114 -74.03019 0
6.7554741 -4.0929308 -0.93397641 250 250 250 -7.8352208 8.4832373 -73.907303 0
6.765461 -4.1196961 -0.94274467 250 250 250 -7.8100228 8.4489336 -73.831169 0
6.7760787 -4.1472387 -0.95309943 250 250 250 -7.6444106 8.3691092 -74.061539 0
6.7865167 -4.1747293 -0.96386206 250 250 250 -7.6347175 8.3983545 -74.209587 0
6.7979093 -4.2032537 -0.97475749 250 250 250 -7.9253926 8.374568 -74.566483 0
6.811286 -4.2323375 -0.98615307 250 250 250 -8.1709442 8.2224979 -74.778908 0
6.8248706 -4.2615972 -0.99667168 250 250 250 -8.1062994 7.9495869 -75.186287 0
6.8385062 -4.29111 -1.0067929 250 250 250 -7.775177 7.6943178 -75.573738 0
6.8530493 -4.3198528 -1.0200231 250 250 250 -7.4864235 7.9025793 -75.538193 0
6.8632002 -4.3441224 -1.0230135 250 250 250 -8.4831266 9.3252869 -75.236343 0
6.8772688 -4.3709579 -1.0243511 250 250 250 -9.2592583 10.269242 -75.75663 0
6.897285 -4.4030595 -1.029026 250 250 250 -8.5379333 10.101419 -76.845627 0
6.9160533 -4.4342871 -1.0365286 250 250 250 -7.5467296 10.035419 -77.051376 0
6.919435 -4.4582653 -1.0368136 250 250 250 -8.2742519 10.424646 -76.776581 0
6.92559 -4.4843717 -1.0373474 250 250 250 -9.5754328 10.916217 -77.247627 0
6.9460354 -4.5174174 -1.0433221 250 250 250 -9.1005821 10.565178 -78.008278 0
6.9556074 -4.5454617 -1.0484492 250 250 250 -7.747539 10.393582 -77.939293 0
6.9595876 -4.5718994 -1.0517741 250 250 250 -7.4289608 10.496969 -78.076736 0
6.9645629 -4.5987535 -1.0568061 250 250 250 -7.6017976 10.451794 -78.578789 0
6.9691696 -4.6251516 -1.0628421 250 250 250 -7.5576015 10.447941 -79.114029 0
6.9741864 -4.6515265 -1.070606 250 250 250 -7.0487981 10.588621 -79.627174 0
6.9790573 -4.6786609 -1.0789951 250 250 250 -6.5581927 10.76897 -79.984962 0
6.9831624 -4.7070575 -1.0876231 250 250 250 -6.4891663 10.803602 -80.385674 0
6.9862227 -4.7352724 -1.0968421 250 250 250 -6.6416392 10.795721 -80.849243 0
6.9903541 -4.7645802 -1.1069577 250 250 250 -6.4910483 11.008579 -81.061707 0
6.9943953 -4.7944613 -1.1152594 250 250 250 -6.2784395 11.238135 -81.07354 0
6.9974399 -4.8252711 -1.1239785 250 250 250 -6.146337 11.123984 -81.192329 0
7.0008745 -4.8573499 -1.129414 250 250 250 -5.8666859 10.796031 -81.553444 0
7.0113354 -4.8893633 -1.1356678 250 250 250 -5.1601114 10.312701 -81.505989 0
7.0143132 -4.9159765 -1.145205 250 250 250 -5.681705 10.652854 -80.57959 0
7.0175014 -4.9470515 -1.1516643 250 250 250 -6.7003012 11.310222 -80.477272 0
7.0238152 -4.990108 -1.1518418 250 250 250 -5.8756509 10.835122 -80.558449 0
7.0318327 -5.0208259 -1.16142 250 250 250 -4.0405083 9.9362087 -80.100151 0
7.0335426 -5.0467119 -1.166276 250 250 250 -4.2494788 10.48761 -79.293701 0
7.0399094 -5.0805278 -1.1699238 250 250 250 -5.100347 10.946923 -79.00061 0
7.0519218 -5.1102171 -1.1762819 250 250 250 -4.5819077 10.518951 -78.558578 0
7.0608039 -5.1386814 -1.1820751 250 250 250 -3.5317018 10.033676 -78.107109 0
7.069458 -5.16787 -1.1878048 250 250 250 -2.588505 9.454915 -77.796104 0
7.077569 -5.1966496 -1.1933963 250 250 250 -2.1920948 8.8782682 -77.331184 0
7.0865588 -5.2238564 -1.2037412 250 250 250 -2.8714991 8.6288395 -77.122192 0
7.0961747 -5.2516088 -1.214231 250 250 250 -3.6963203 8.7314034 -76.895683 0
7.1071157 -5.280057 -1.2236589 250 250 250 -3.9562454 8.7040434 -76.83535 0
7.1235852 -5.3107758 -1.232775 250 250 250 -2.9972818 8.43116 -76.53479 0
7.1390991 -5.3362317 -1.242465 250 250 250 -2.05457 8.0421362 -75.575684 0
7.1506376 -5.3661666 -1.2508241 250 250 250 -2.3156321 7.6831074 -74.871002 0
7.1641421 -5.4011855 -1.2583802 250 250 250 -3.0832849 7.159287 -75.147331 0
7.1780205 -5.436162 -1.2647613 250 250 250 -3.4170351 6.2304015 -75.850235 0
7.1972055 -5.4685822 -1.2752317 250 250 250 -3.3128352 5.4196763 -76.194939 0
7.2064734 -5.4950495 -1.2741711 250 250 250 -5.3268495 6.90516 -75.735703 0
7.218411 -5.529026 -1.2821691 250 250 250 -8.0940762 7.7614255 -77.034142 0
7.2371879 -5.5650997 -1.2786994 250 250 250 -7.3270073 7.2989893 -78.725586 0
7.2494392 -5.5748539 -1.2788409 250 250 250 -5.2532287 7.0049634 -79.11937 0
7.2574248 -5.5976396 -1.2842684 250 250 250 -5.6767669 7.6856146 -78.874939 0
7.2672243 -5.6274199 -1.2945094 250 250 250 -8.2900314 8.1859894 -79.907852 0
7.280139 -5.6590075 -1.2895224 250 250 250 -8.7204733 8.2195177 -80.736801 0
7.2932549 -5.6844983 -1.2859035 250 250 250 -7.257071 8.0364361 -80.748596 0
7.3044777 -5.7088704 -1.2930051 250 250 250 -6.2575183 7.8415399 -80.661682 0
7.3153143 -5.732132 -1.3020532 250 250 250 -6.8956676 7.9269838 -80.836182 0
7.3266811 -5.7564092 -1.3103126 250 250 250 -7.905169 8.1949167 -81.195572 0
7.33916 -5.7825513 -1.3117846 250 250 250 -7.3483405 8.6771088 -80.883904 0
7.3457546 -5.8161654 -1.3198192 250 250 250 -6.2964678 8.6895342 -80.287697 0
7.3541822 -5.8387485 -1.3304543 250 250 250 -5.7960687 8.5872755 -80.60614 0
7.3631139 -5.8637404 -1.3434045 250 250 250 -6.2190976 8.7958708 -80.751572 0
7.3706684 -5.8939476 -1.3517188 250 250 250 -7.0407929 8.9691124 -81.126862 0
7.3797774 -5.9241514 -1.3599492 250 250 250 -7.0529137 8.9327087 -81.424988 0
7.3861551 -5.9556985 -1.365187 250 250 250 -6.8349795 8.628418 -81.691971 0
7.3998728 -5.9823008 -1.381372 250 250 250 -6.758235 7.9683118 -82.282173 0
7.411119 -5.9990773 -1.412662 250 250 250 -8.281949 8.6638279 -81.768974 0
7.4161186 -6.0366569 -1.4057922 250 250 250 -10.237329 10.059834 -81.985275 0
7.4295096 -6.0747886 -1.4001312 250 250 250 -8.5925217 9.7343836 -82.121986 0
7.4474812 -6.0930219 -1.405576 250 250 250 -5.3775387 8.5924826 -81.568764 0
7.461926 -6.1077781 -1.4299331 250 250 250 -5.6719289 8.4948616 -81.149796 0
7.4704881 -6.1373115 -1.441799 250 250 250 -7.8859468 8.94277 -81.235527 0
7.4780908 -6.1726036 -1.4231181 250 250 250 -8.0106192 9.2175503 -81.148056 0
7.4877892 -6.1976418 -1.4279242 250 250 250 -7.1048441 8.6670551 -81.07412 0
7.4997702 -6.2172217 -1.4446871 250 250 250 -7.3234329 8.511261 -81.27417 0
7.5066714 -6.2460051 -1.4515899 250 250 250 -8.3125401 8.707303 -81.55484 0
7.5146742 -6.2749319 -1.4557859 250 250 250 -8.7739172 8.5827827 -82.036896 0
7.5237474 -6.3023887 -1.462675 250 250 250 -8.995225 8.3533745 -82.45668 0
7.5327606 -6.3311105 -1.4685463 250 250 250 -9.0730457 8.1669941 -82.998337 0
7.5440907 -6.3584275 -1.4782058 250 250 250 -8.7221441 7.9324627 -83.519119 0
7.5522819 -6.387805 -1.4873749 250 250 250 -8.6530781 7.673378 -83.931953 0
7.5611444 -6.4162688 -1.4963467 250 250 250 -9.2130299 7.5162458 -84.758667 0
7.5655832 -6.4498305 -1.5026268 250 250 250 -9.789567 7.3317924 -86.018059 0
7.5770955 -6.4786758 -1.5100303 250 250 250 -9.6376791 6.8333335 -87.576851 0
7.5973382 -6.4931426 -1.5463346 250 250 250 -9.8762741 6.6470733 -88.584427 0
7.5996013 -6.5233736 -1.5488113 250 250 250 -11.426531 8.0285006 -89.110603 0
7.6090493 -6.5549998 -1.5380942 250 250 250 -11.738981 8.6671734 -90.348541 0
7.6176472 -6.5862331 -1.5283184 250 250 250 -11.152651 8.6773748 -91.325974 0
7.6272035 -6.6150303 -1.5290614 250 250 250 -11.010392 8.3446589 -92.454887 0
7.6382947 -6.6392975 -1.5346714 250 250 250 -11.495643 7.9653559 -93.081261 0
7.646018 -6.6627779 -1.5453597 250 250 250 -13.235156 8.2940969 -93.586342 0
7.6513357 -6.6889939 -1.5456616 250 250 250 -14.407365 9.0542412 -94.788567 0
7.6625299 -6.7142873 -1.5459605 250 250 250 -13.102054 9.239254 -95.926224 0
7.6716866 -6.7379789 -1.5528641 250 250 250 -11.208087 9.1729364 -96.416199 0
7.6685901 -6.7626653 -1.5615722 250 250 250 -11.164386 9.2302494 -96.968163 0
7.6771083 -6.7879772 -1.566882 250 250 250 -11.909595 9.3763294 -98.227501 0
7.6861691 -6.8133955 -1.5732812 250 250 250 -11.348863 9.3040276 -98.827156 0
7.6932597 -6.838923 -1.5803506 250 250 250 -10.135511 9.0938797 -98.978653 0
7.6959534 -6.8638539 -1.5883842 250 250 250 -9.5125036 8.8684664 -99.259872 0
7.6974506 -6.8882999 -1.599147 250 250 250 -9.6234474 8.6457071 -99.683861 0
7.6990991 -6.9136996 -1.6097828 250 250 250 -10.070266 8.5280828 -100.15034 0
7.6976299 -6.9403648 -1.6191218 250 250 250 -10.693549 8.386342 -100.63887 0
7.6974568 -6.9679589 -1.62672 250 250 250 -11.129778 8.0913811 -101.50457 0
7.6970859 -6.9964166 -1.6344894 250 250 250 -11.017278 7.5336337 -102.224 0
7.6926827 -7.0183601 -1.6754215 250 250 250 -11.011744 6.6511021 -102.29248 0
7.6875916 -7.0425277 -1.6815323 250 250 250 -13.849756 8.3631496 -102.27639 0
7.7024045 -7.0877333 -1.660902 250 250 250 -16.27363 9.8675137 -104.09315 0
7.7200799 -7.1394634 -1.6664217 250 250 250 -13.81397 8.8502254 -104.75834 0
7.7085462 -7.1493211 -1.6768341 250 250 250 -11.11813 7.9778829 -103.93999 0
7.6924424 -7.1573992 -1.6781075 250 250 250 -12.096097 8.4282675 -103.96579 0
7.699255 -7.1899691 -1.6734188 250 250 250 -14.250291 8.8608427 -105.0714 0
7.7051339 -7.223011 -1.6711273 250 250 250 -13.912929 8.3588104 -105.70851 0
7.7009931 -7.2450318 -1.6702771 250 250 250 -12.897481 7.6863284 -106.10022 0
7.695178 -7.2648597 -1.6749328 250 250 250 -13.187074 7.3869486 -106.70481 0
7.6895308 -7.2867751 -1.6776004 250 250 250 -14.098228 7.3244262 -107.35208 0
7.6849422 -7.3104482 -1.6785229 250 250 250 -14.887638 7.0773773 -108.39509 0
7.6794538 -7.3334975 -1.6832625 250 250 250 -15.273393 6.7715149 -109.43018 0
7.675169 -7.3595152 -1.6833596 250 250 250 -15.603116 6.5973825 -110.72372 0
7.6703658 -7.3884778 -1.6910945 250 250 250 -15.232926 5.9197464 -111.99191 0
7.6643486 -7.4144645 -1.6975013 250 250 250 -15.00411 5.2069335 -113.00028 0
7.658215 -7.4386554 -1.7033664 250 250 250 -15.252224 4.6424408 -113.96238 0
7.655509 -7.4695845 -1.7045091 250 250 250 -15.59748 4.1616721 -115.34067 0
7.6513791 -7.5016313 -1.7088336 250 250 250 -14.988645 3.1653521 -116.73746 0
7.6417909 -7.5212932 -1.7246301 250 250 250 -14.068282 1.9014184 -117.70102 0
7.6325116 -7.5293732 -1.7389187 250 250 250 -14.909587 2.3342323 -117.62611 0
7.6386967 -7.5667858 -1.7184813 250 250 250 -17.089634 3.4210575 -119.10139 0
7.6402984 -7.6094747 -1.7201341 250 250 250 -16.155514 3.1914041 -120.54527 0
7.6341805 -7.6399436 -1.7088488 250 250 250 -14.155036 2.7287354 -122.0101 0
7.6238561 -7.6614308 -1.7167585 250 250 250 -12.414858 1.5768632 -123.50595 0
7.6153293 -7.6766105 -1.7222877 250 250 250 -12.664644 1.1848902 -124.0717 0
7.6076789 -7.6902304 -1.7164819 250 250 250 -14.488906 1.5067729 -124.87847 0
7.6011257 -7.7109337 -1.7154346 250 250 250 -15.592897 1.5983325 -126.11713 0
7.5921459 -7.729938 -1.7233039 250 250 250 -14.936584 1.3183199 -126.91182 0
7.5840459 -7.7499161 -1.7285755 250 250 250 -14.184514 1.1871582 -127.26965 0
7.5776324 -7.7652383 -1.7307911 250 250 250 -14.701105 1.4049265 -127.82751 0
7.5708189 -7.779285 -1.7327936 250 250 250 -16.146729 2.0048027 -128.88232 0
7.559248 -7.7974954 -1.746304 250 250 250 -17.003439 2.3904283 -129.9207 0
7.5476394 -7.8160119 -1.7577511 250 250 250 -16.933016 2.7983663 -130.48352 0
7.5352564 -7.8332448 -1.7662841 250 250 250 -16.41259 3.140801 -131.00999 0
7.5224609 -7.849823 -1.7766384 250 250 250 -16.327946 3.3446195 -131.91124 0
7.5086098 -7.865747 -1.786092 250 250 250 -16.846794 3.6306391 -132.84485 0
7.4931607 -7.8824434 -1.7955455 250 250 250 -17.343246 3.8369899 -133.82304 0
7.4768386 -7.8990192 -1.8038689 250 250 250 -17.098473 3.6132622 -134.70341 0
7.4598265 -7.9153161 -1.8117621 250 250 250 -16.693697 3.1969101 -135.53104 0
7.4423976 -7.9313135 -1.8188034 250 250 250 -16.624964 2.7698917 -136.61444 0
7.4230456 -7.948709 -1.8247803 250 250 250 -16.221313 2.1840327 -137.65771 0
7.4041004 -7.9676609 -1.8235183 250 250 250 -15.869246 2.0163467 -137.73726 0
7.3855834 -7.9834566 -1.8335574 250 250 250 -17.853802 2.8790369 -138.40149 0
7.3658323 -8.0002995 -1.839659 250 250 250 -18.616871 3.1926866 -139.45567 0
7.3456812 -8.0175076 -1.8421608 250 250 250 -16.866251 2.3964517 -139.59709 0
7.3265862 -8.0338278 -1.8437911 250 250 250 -15.411718 1.8876191 -139.69489 0
7.3080354 -8.0500927 -1.8471122 250 250 250 -16.445118 2.5895889 -140.14542 0
7.290288 -8.0648746 -1.8530904 250 250 250 -18.258013 3.2288401 -140.72354 0
7.2725239 -8.0789928 -1.8600098 250 250 250 -18.397739 3.1037509 -141.32449 0
7.2544837 -8.0923328 -1.8661003 250 250 250 -18.10548 2.7698791 -142.03488 0
7.2364321 -8.105567 -1.8715655 250 250 250 -18.874844 2.7360594 -142.83574 0
7.2182698 -8.1191854 -1.8766531 250 250 250 -19.988033 2.5653348 -143.40439 0
7.2002006 -8.1324081 -1.8837953 250 250 250 -21.262775 2.2844329 -143.88181 0
7.1820073 -8.1451321 -1.8925505 250 250 250 -22.649284 2.2436655 -144.62172 0
7.1627488 -8.1579914 -1.9017324 250 250 250 -23.392448 2.1671083 -145.50531 0
7.1432962 -8.1713371 -1.9107625 250 250 250 -23.618971 1.9528775 -146.24881 0
7.123188 -8.1856089 -1.9197162 250 250 250 -23.541574 1.5866504 -146.91331 0
7.1032586 -8.2007809 -1.9288425 250 250 250 -23.376631 1.3660711 -147.42178 0
7.0833311 -8.2159863 -1.938601 250 250 250 -23.450703 0.82022101 -148.2811 0
7.0627642 -8.2320995 -1.9468765 250 250 250 -23.459312 -0.0012449858 -149.48566 0
7.0432072 -8.2507715 -1.9521968 250 250 250 -23.64155 0.066231698 -150.16962 0
7.0224237 -8.2666674 -1.9631009 250 250 250 -25.676752 0.91927904 -150.91527 0
7.001883 -8.2839422 -1.9711689 250 250 250 -26.319927 1.4273338 -151.84996 0
6.9834991 -8.3021727 -1.9767245 250 250 250 -25.517483 1.8904426 -152.62434 0
6.9644737 -8.3197422 -1.9814186 250 250 250 -24.392744 1.7533816 -153.78403 0
6.9435167 -8.3357515 -1.9838306 250 250 250 -23.405506 1.488412 -154.48584 0
6.9235039 -8.3514996 -1.986053 250 250 250 -23.50182 1.4434078 -154.96989 0
6.9045033 -8.3667421 -1.9889301 250 250 250 -24.648691 1.7654297 -155.75281 0
6.885323 -8.3815002 -1.9924147 250 250 250 -24.849419 1.9836446 -156.34637 0
6.8662601 -8.3956251 -1.9967443 250 250 250 -23.929546 2.1250284 -156.49037 0
6.8478656 -8.4086075 -2.0031791 250 250 250 -23.771162 2.3905048 -156.93326 0
6.8290195 -8.4211016 -2.0093651 250 250 250 -24.376013 2.8310237 -157.66574 0
6.8096771 -8.4333057 -2.0161657 250 250 250 -24.528542 3.1849823 -158.18811 0
6.7900958 -8.4451399 -2.0235608 250 250 250 -23.93408 3.2746568 -158.63445 0
6.7688727 -8.4565849 -2.0307806 250 250 250 -23.297146 3.3687587 -158.90352 0
6.7467937 -8.4681873 -2.0380847 250 250 250 -22.843868 3.4243691 -159.25249 0
6.72299 -8.4795437 -2.0453608 250 250 250 -22.578939 3.5500519 -159.40935 0
6.6966376 -8.4902458 -2.0521374 250 250 250 -22.864965 3.6377294 -159.67406 0
6.6702671 -8.5010443 -2.0584297 250 250 250 -23.101076 3.4191048 -160.15462 0
6.6420827 -8.5117931 -2.0640686 250 250 250 -22.563126 2.5454834 -160.63345 0
6.6141982 -8.5232916 -2.0637712 250 250 250 -21.594994 1.615667 -160.7122 0
6.5854368 -8.5331984 -2.0661714 250 250 250 -22.834372 2.2775638 -160.09557 0
6.5588746 -8.5461159 -2.0744886 250 250 250 -25.185358 3.1327131 -160.70064 0
6.537302 -8.5630093 -2.0752571 250 250 250 -24.276972 2.7726772 -161.157 0
6.5176864 -8.5803938 -2.0731425 250 250 250 -21.465124 2.247756 -160.50447 0
6.4906268 -8.5867777 -2.0775342 250 250 250 -21.773584 2.9993606 -160.12199 0
6.4569902 -8.5973892 -2.0773926 250 250 250 -23.358364 3.4932218 -160.36771 0
6.4362302 -8.6121521 -2.07549 250 250 250 -23.167955 3.1790802 -160.35632 0
6.4147677 -8.6244421 -2.0773554 250 250 250 -22.45487 2.8372903 -160.15973 0
6.3912868 -8.6365242 -2.0796142 250 250 250 -22.474054 2.7901733 -160.55054 0
6.3664761 -8.6489878 -2.0778961 250 250 250 -22.231245 2.6380482 -160.66579 0
6.3417039 -8.6617031 -2.0797894 250 250 250 -22.118801 2.2662103 -160.59119 0
6.3168154 -8.6747789 -2.0822458 250 250 250 -22.247965 1.8217361 -161.05063 0
6.2916746 -8.6883812 -2.0834215 250 250 250 -21.854164 1.334151 -161.53397 0
6.2642264 -8.7025127 -2.0839131 250 250 250 -21.217491 0.56720906 -161.52017 0
6.2370305 -8.7181606 -2.0842056 250 250 250 -20.938663 -0.48936051 -161.36824 0
6.2100601 -8.7350788 -2.0847695 250 250 250 -20.977331 -1.5590826 -161.12189 0
6.1822944 -8.7519369 -2.0859399 250 250 250 -21.154932 -2.745198 -161.08977 0
0 0 0 1 0 0 0 1 0 0 0 1 0 0 0 0 0 601 1 0 0
