ply
format ascii 1.0
comment PCL generated
element vertex 525
property float x
property float y
property float z
property uchar red
property uchar green
property uchar blue
property float nx
property float ny
property float nz
property float curvature
element camera 1
property float view_px
property float view_py
property float view_pz
property float x_axisx
property float x_axisy
property float x_axisz
property float y_axisx
property float y_axisy
property float y_axisz
property float z_axisx
property float z_axisy
property float z_axisz
property float focal
property float scalex
property float scaley
property float centerx
property float centery
property int viewportx
property int viewporty
property float k1
property float k2
end_header
1.405267 -1.6557064 -0.14973164 250 0 0 0.32067221 -10.649783 127.73854 0
1.3998049 -1.638623 -0.14697686 250 0 0 0.70940632 -10.640708 128.17191 0
1.385585 -1.60728 -0.14523657 250 0 0 1.4595059 -10.342749 128.77072 0
1.3782195 -1.5919603 -0.14510997 250 0 0 1.8539363 -10.251381 129.42899 0
1.3670021 -1.5561167 -0.14736448 250 0 0 2.0833611 -9.9086094 130.27571 0
1.3367193 -1.4886844 -0.12465174 250 0 0 2.0100451 -10.011827 132.2034 0
1.3264264 -1.4640427 -0.11526013 250 0 0 2.0550435 -10.415359 132.64095 0
1.3112286 -1.4191761 -0.10225974 250 0 0 3.0474551 -11.857794 133.19304 0
1.2849916 -1.363238 -0.097974911 250 0 0 3.6713748 -12.641046 132.74553 0
1.2407432 -1.2919066 -0.10941244 250 0 0 3.9604323 -11.249689 131.3092 0
1.2186885 -1.2603426 -0.1093047 250 0 0 3.8470612 -10.83297 130.63142 0
1.1674486 -1.1948245 -0.10354517 250 0 0 2.7737358 -11.351383 129.73584 0
1.0748988 -1.106239 -0.059888802 250 0 0 2.941577 -11.683499 127.39651 0
1.0590508 -1.077884 -0.064327344 250 0 0 2.4990668 -12.547326 126.90498 0
1.0037792 -1.0427403 -0.067583181 250 0 0 2.5126491 -10.792936 126.83744 0
0.9217338 -0.93757427 -0.074215345 250 0 0 2.5231805 -8.441741 128.41676 0
0.82906842 -0.79800361 -0.06415344 250 0 0 1.5787706 -10.355258 130.88295 0
0.7820133 -0.76704276 -0.055562131 250 0 0 1.2197342 -9.801363 131.44113 0
0.73025084 -0.68227714 -0.030167572 250 0 0 0.60316986 -11.016471 134.01289 0
0.63062572 -0.58624065 -0.017587874 250 0 0 2.9158885 -10.390767 136.38812 0
0.60385585 -0.53217584 -0.024934728 250 0 0 2.5187702 -10.067651 136.70052 0
0.51688516 -0.45646724 -0.0077031222 250 0 0 1.512648 -10.425422 135.84865 0
0.39758697 -0.33916542 0.03239971 250 0 0 1.1114014 -10.231312 133.86633 0
0.36278453 -0.31412271 0.027065931 250 0 0 1.1391884 -11.43141 133.19556 0
0.28889787 -0.24122627 0.014842873 250 0 0 2.3139739 -9.592618 132.89989 0
0.16778278 -0.11581848 0.01277518 250 0 0 2.6060586 -9.5052528 134.95819 0
0.039306801 0.023171758 0.053206641 250 0 0 2.1946609 -8.6127815 136.42104 0
0.0094605451 0.086064465 0.069132388 250 0 0 1.1986278 -9.9150667 137.72301 0
-0.057269946 0.14103813 0.076203398 250 0 0 2.7019053 -10.185569 137.69748 0
-0.16258055 0.29010695 0.057844926 250 0 0 3.5028915 -10.407325 137.2683 0
-0.21625434 0.33002782 0.079742298 250 0 0 3.5444503 -10.160995 136.36703 0
-0.28966492 0.44293588 0.077812634 250 0 0 1.8182132 -12.048229 134.86157 0
-0.41939968 0.53578383 0.10644937 250 0 0 3.3689525 -12.603488 131.34602 0
-0.55681723 0.64780742 0.10485627 250 0 0 4.971633 -10.623218 132.94217 0
-0.58769476 0.72178674 0.10888142 250 0 0 4.2020516 -11.588037 133.69885 0
-0.66314334 0.81403518 0.070627667 250 0 0 2.6597569 -11.301858 133.4547 0
-0.79646498 1.0007205 0.12326834 250 0 0 1.131386 -10.996131 135.75815 0
-0.86058354 0.99903286 0.13684273 250 0 0 2.2156818 -10.514508 135.3416 0
-0.92013651 1.1435232 0.15046459 250 0 0 4.2464018 -11.664875 136.64948 0
-1.0582792 1.2767074 0.13672502 250 0 0 2.5402706 -11.182037 135.74835 0
-1.0834914 1.3301055 0.13954659 250 0 0 0.72463763 -11.921469 134.82852 0
-1.1678631 1.3876989 0.17344223 250 0 0 2.0909078 -11.881212 131.78093 0
-1.2833846 1.5005317 0.14429545 250 0 0 2.8334229 -10.855333 129.98358 0
-1.4423257 1.6272377 0.15788375 250 0 0 2.3786986 -11.266847 131.13033 0
-1.475801 1.6855583 0.14967936 250 0 0 1.7675939 -10.714361 131.57404 0
-1.5869957 1.7783935 0.19604777 250 0 0 0.98555744 -10.204194 133.68982 0
-1.7108339 1.9118557 0.24936773 250 0 0 1.2419266 -10.967884 135.65074 0
-1.7455529 1.9721934 0.25878227 250 0 0 1.5303693 -12.061265 136.42122 0
-1.8173767 2.0761981 0.23986307 250 0 0 1.7531153 -12.872773 135.23451 0
-1.9510217 2.1858718 0.23676947 250 0 0 -0.020514213 -12.121294 131.76178 0
-2.002182 2.223125 0.2623387 250 0 0 0.76983839 -11.648496 130.98172 0
-2.0866795 2.2818315 0.24953535 250 0 0 2.1921728 -11.276993 130.01401 0
-2.233968 2.3975284 0.26847139 250 0 0 2.8955901 -10.819974 132.63875 0
-2.3578069 2.5212677 0.2692171 250 0 0 2.0562735 -10.598463 134.84935 0
-2.4176807 2.5607469 0.29551083 250 0 0 2.3349409 -10.46039 136.80267 0
-2.4646165 2.6757627 0.30265433 250 0 0 0.45014492 -11.016057 139.38918 0
-2.6003926 2.796592 0.3192856 250 0 0 1.9050754 -10.867285 139.52937 0
-2.63991 2.8461907 0.30675474 250 0 0 1.4486942 -11.21457 139.05054 0
-2.7280042 2.9231012 0.28985658 250 0 0 0.2101538 -9.8786125 136.17746 0
-2.8622785 3.0337007 0.33526754 250 0 0 1.6929221 -9.6704826 133.27219 0
-3.0153592 3.1602945 0.34727532 250 0 0 3.5378473 -9.0477037 132.86264 0
-3.0674613 3.2111449 0.34789458 250 0 0 2.8183808 -9.3128624 134.07782 0
-3.1503119 3.3364244 0.33513787 250 0 0 0.66579032 -11.24662 135.75967 0
-3.2863343 3.4301081 0.34708154 250 0 0 -2.6271489 -11.64475 137.88011 0
-3.3325005 3.4594657 0.35468605 250 0 0 -1.9459603 -11.206155 137.59795 0
-3.4301534 3.5564461 0.38109338 250 0 0 -0.51733565 -11.779596 138.50999 0
-3.5396228 3.7051606 0.34716937 250 0 0 -0.21609075 -12.298474 135.57655 0
-3.6824801 3.7610033 0.3643721 250 0 0 0.9869175 -10.522528 129.95493 0
-3.7465897 3.7964604 0.38377583 250 0 0 2.9686255 -9.5914936 130.01105 0
-3.832876 3.8842714 0.35759658 250 0 0 3.307138 -10.093939 131.34027 0
-4.0007439 4.0168695 0.35300109 250 0 0 2.4547601 -11.350686 137.07695 0
-4.0537114 4.0477576 0.37810665 250 0 0 2.6119518 -11.574539 138.98509 0
-4.1218042 4.1430321 0.35111618 250 0 0 -0.062704764 -11.286495 138.68864 0
-4.2510691 4.2611713 0.3714889 250 0 0 0.80727899 -11.82264 139.05765 0
-4.2924142 4.3004203 0.34717607 250 0 0 0.96464723 -11.71657 137.96883 0
-4.3786902 4.4156041 0.3513591 250 0 0 0.458197 -11.752728 136.05664 0
-4.5184999 4.4646115 0.38267115 250 0 0 1.3061424 -10.283657 132.27098 0
-4.6477728 4.5653062 0.37124056 250 0 0 2.361686 -10.829072 136.18062 0
-4.698915 4.6317358 0.38263166 250 0 0 2.1234126 -11.217721 138.11055 0
-4.7842126 4.7317934 0.37550989 250 0 0 1.3075583 -12.733664 140.29059 0
-4.9098501 4.8585458 0.39249918 250 0 0 -0.64297485 -13.239743 139.78355 0
-4.9196301 4.8980541 0.39971501 250 0 0 0.77137804 -11.979748 139.47298 0
-5.0213509 5.0363264 0.4003121 250 0 0 1.085727 -13.339477 138.96771 0
-5.154356 5.1644454 0.39516664 250 0 0 0.55994815 -12.672824 136.2916 0
-5.2681327 5.2181129 0.41694042 250 0 0 1.1385777 -12.135345 133.91402 0
-5.3185363 5.2588177 0.43160796 250 0 0 2.5228848 -11.637707 134.25044 0
-5.3868451 5.3204598 0.41463906 250 0 0 2.4097481 -11.019491 136.13876 0
-5.5362372 5.4189787 0.41043517 250 0 0 1.5862032 -12.925485 144.73083 0
-5.5868049 5.4683008 0.4208709 250 0 0 -0.43126562 -11.855246 147.43674 0
-5.6845546 5.5658889 0.432327 250 0 0 -2.3177762 -11.79143 152.60884 0
-5.8665872 5.6595635 0.44709778 250 0 0 -2.5714612 -10.602798 157.06381 0
-5.9106565 5.6829462 0.43497375 250 0 0 -2.9788187 -11.540737 158.20686 0
-6.021698 5.7319608 0.42927724 250 0 0 -3.0106249 -11.614922 160.09871 0
-6.1820245 5.8295345 0.43663481 250 0 0 -4.7515478 -12.549388 162.70657 0
-6.3515563 5.8629022 0.44813293 250 0 0 -1.106274 -10.703802 163.9447 0
-6.395349 5.855617 0.43086186 250 0 0 -1.3213072 -10.253626 165.57581 0
-6.5687985 5.8806801 0.44238222 250 0 0 -1.4164455 -10.432158 172.01302 0
-6.7421145 5.9137535 0.42857018 250 0 0 -2.9886646 -9.2409983 -179.89169 0
-6.8264432 5.9215326 0.43552908 250 0 0 -4.7104907 -9.7849121 -178.46388 0
-6.932467 5.9090486 0.43504995 250 0 0 -2.8820927 -8.2318258 -174.67621 0
-7.13344 5.9427319 0.40893474 250 0 0 -2.4287925 -8.81215 -173.6804 0
-7.3237 5.960187 0.40052512 250 0 0 -4.5381818 -9.5907173 -173.02988 0
-7.364171 5.9199805 0.40532136 250 0 0 -3.8335474 -8.0308647 -173.62706 0
-7.4999089 5.9177794 0.41193759 250 0 0 -1.8092684 -7.515223 -170.55508 0
-7.7058358 5.8404512 0.39522016 250 0 0 -1.68458 -8.0752325 -162.16936 0
-7.7688599 5.842288 0.37380958 250 0 0 -3.2048669 -7.4692245 -159.12665 0
-7.9186726 5.827508 0.38816217 250 0 0 -4.7995315 -5.7307878 -154.51218 0
-8.1083117 5.7585359 0.40277946 250 0 0 -3.1849411 -4.8559504 -149.7478 0
-8.1443825 5.7327023 0.38315669 250 0 0 -3.7675495 -6.1939926 -149.32796 0
-8.2421007 5.6837168 0.37274674 250 0 0 -2.9146898 -5.6813769 -150.17 0
-8.2603064 5.5794539 0.3687627 250 0 0 -4.2419662 -5.8596711 -151.70708 0
-8.4525471 5.4971232 0.38847807 250 0 0 -1.4104271 -6.1541247 -149.62367 0
-8.5118942 5.455657 0.37739211 250 0 0 -1.814271 -7.1932292 -148.13739 0
-8.6340303 5.3769636 0.36243123 250 0 0 -3.581713 -9.4766054 -145.35727 0
-8.7219429 5.2615824 0.36147532 250 0 0 -4.3816867 -7.1548958 -142.09151 0
-8.7701874 5.2295904 0.3679364 250 0 0 -2.909761 -4.8677855 -140.42297 0
-8.8969469 5.1617885 0.37094155 250 0 0 -2.3347576 -7.0046449 -138.93228 0
-9.0580997 5.0542188 0.38371062 250 0 0 -3.5859294 -3.3956146 -142.20229 0
-9.1062365 5.0183454 0.40899831 250 0 0 -3.5324621 -4.0238004 -143.09151 0
-9.1579628 4.9435 0.40825585 250 0 0 -2.6940708 -2.280484 -144.86224 0
-9.2665167 4.8309374 0.4112317 250 0 0 -1.3597451 -2.8842099 -142.73372 0
-9.3858395 4.7132549 0.42336011 250 0 0 -2.758249 -5.2060585 -138.71558 0
-9.4242811 4.6814713 0.42838418 250 0 0 -2.0503418 -5.089107 -136.98706 0
-9.4911346 4.6227994 0.42920297 250 0 0 -4.0149651 -5.1660891 -137.7513 0
-9.6361828 4.546216 0.43365267 250 0 0 -3.3880115 -4.7135134 -137.5891 0
-9.6510601 4.4878564 0.40629375 250 0 0 -3.4975464 -5.0481124 -138.52257 0
-9.7547894 4.3981185 0.4056502 250 0 0 -2.7389016 -6.8375492 -138.80057 0
-9.8719873 4.2733817 0.3661679 250 0 0 -2.8868265 -6.5445428 -141.2373 0
-9.9907703 4.1312661 0.35787764 250 0 0 -1.4103026 -6.1842322 -139.17105 0
-10.055732 4.0946846 0.35456458 250 0 0 -1.3877903 -6.4092698 -138.45151 0
-10.149714 4.0013647 0.3521919 250 0 0 -1.416108 -6.1375651 -136.3835 0
-10.298973 3.897311 0.35985196 250 0 0 -2.4555387 -5.2764931 -137.15962 0
-10.332114 3.8507214 0.36422485 250 0 0 -1.1425663 -4.0202999 -136.72623 0
-10.42912 3.7868645 0.36148739 250 0 0 -1.8202924 -4.9930115 -135.71234 0
-10.551579 3.6584921 0.34313923 250 0 0 -2.1085308 -4.3033347 -137.49059 0
-10.580273 3.6149249 0.33796695 250 0 0 -2.9543259 -3.8405871 -138.37851 0
-10.654131 3.5271068 0.35284075 250 0 0 -2.5922751 -2.9336329 -140.37393 0
-10.758869 3.3924456 0.35581097 250 0 0 -0.584791 -2.9249113 -140.03979 0
-10.876485 3.2454374 0.33844891 250 0 0 -0.016824439 -4.8822026 -135.49237 0
-10.936541 3.1888247 0.35669154 250 0 0 -0.63955611 -5.0769463 -133.20926 0
-11.043485 3.1060827 0.34312326 250 0 0 -2.3225105 -5.9914904 -131.55588 0
-11.173424 2.9744809 0.35495272 250 0 0 -1.064894 -5.1302581 -131.32877 0
-11.215096 2.9382801 0.33103767 250 0 0 -1.0709742 -5.7122378 -131.60948 0
-11.295718 2.8435955 0.32275376 250 0 0 -0.47519803 -5.3305387 -132.03242 0
-11.41566 2.6908 0.33613762 250 0 0 -1.8292609 -5.5529642 -132.02608 0
-11.497365 2.5329609 0.33020523 250 0 0 -0.089982562 -5.7745471 -130.61273 0
-11.514883 2.4740453 0.31389391 250 0 0 -0.31630778 -5.1246705 -129.58392 0
-11.573933 2.3443682 0.31377885 250 0 0 -0.7325052 -5.32798 -124.11015 0
-11.644777 2.1532042 0.28958124 250 0 0 -2.1652029 -4.6506395 -115.79819 0
-11.696218 2.10199 0.29608139 250 0 0 -2.7182388 -4.4267783 -112.60013 0
-11.713924 1.9787289 0.2985625 250 0 0 -1.4726512 -3.4200754 -108.97021 0
-11.789135 1.7868907 0.28476545 250 0 0 -2.0408328 -6.328496 -104.75067 0
-11.82952 1.5973904 0.27732071 250 0 0 -3.6916759 -6.359664 -104.12867 0
-11.844271 1.5436493 0.27160022 250 0 0 -3.3138034 -5.8069143 -104.94604 0
-11.836713 1.4170346 0.29046258 250 0 0 -1.3397923 -5.0441523 -104.34494 0
-11.84338 1.2345397 0.24868619 250 0 0 -0.42971867 -5.4120131 -99.844765 0
-11.840165 1.1747158 0.23266278 250 0 0 0.24978928 -5.0333066 -97.273735 0
-11.833784 1.0442257 0.237386 250 0 0 0.28930688 -3.0404556 -92.267921 0
-11.836167 0.85581648 0.25169167 250 0 0 0.22640426 -2.9567921 -84.773361 0
-11.835755 0.66245937 0.23358428 250 0 0 0.8914426 -3.6985524 -81.631409 0
-11.833623 0.59684044 0.21706814 250 0 0 0.73956585 -3.4712272 -81.789917 0
-11.817968 0.46235117 0.21467006 250 0 0 -2.2603648 -3.3109777 -81.698761 0
-11.804629 0.26978499 0.23278393 250 0 0 -1.5891916 -3.1343119 -83.553642 0
-11.788845 0.21183814 0.22459443 250 0 0 -0.53038114 -2.9928765 -83.730186 0
-11.764976 0.087300725 0.20873143 250 0 0 1.661381 -2.5273094 -81.874977 0
-11.748802 -0.11544424 0.17125067 250 0 0 1.0225052 -2.4612267 -77.235817 0
-11.737359 -0.18612476 0.18089153 250 0 0 1.4201058 -1.8194422 -75.352234 0
-11.755575 -0.3222467 0.18809839 250 0 0 -0.58850431 -2.5804272 -72.5103 0
-11.726125 -0.50455421 0.19503361 250 0 0 1.7435056 -3.2693062 -71.250389 0
-11.695274 -0.68778563 0.15732799 250 0 0 0.20787621 -2.8288267 -74.068047 0
-11.668655 -0.74627829 0.16283867 250 0 0 -1.2929311 -3.6968255 -74.580879 0
-11.688436 -0.86851758 0.14787211 250 0 0 -2.3854122 -4.3977628 -77.276253 0
-11.602557 -1.0347902 0.16310573 250 0 0 -0.82985967 -3.5615501 -78.830826 0
-11.582624 -1.0911402 0.15337586 250 0 0 -0.49498296 -4.0853872 -77.827812 0
-11.570983 -1.2148647 0.13145398 250 0 0 0.7799077 -4.6121154 -77.254532 0
-11.547686 -1.4015523 0.12972055 250 0 0 1.1006485 -2.6741817 -74.866608 0
-11.542748 -1.4575152 0.13060378 250 0 0 -0.062412258 -2.0614028 -76.486275 0
-11.51501 -1.5839119 0.15533634 250 0 0 1.5532547 -1.1079931 -78.047195 0
-11.509439 -1.7891155 0.11357859 250 0 0 -0.48325399 -3.2773631 -81.230133 0
-11.474851 -1.9892111 0.13812722 250 0 0 -4.0136905 -1.4490682 -85.988701 0
-11.479201 -2.0564237 0.17908315 250 0 0 -4.4641852 -2.1335881 -87.70414 0
-11.465232 -2.1597795 0.17616035 250 0 0 -3.5373163 -1.5448161 -91.060364 0
-11.449327 -2.3428991 0.16773897 250 0 0 0.067755729 -1.8561639 -91.443092 0
-11.474935 -2.415103 0.16343689 250 0 0 0.34185582 -2.3006375 -90.988884 0
-11.478467 -2.5511682 0.15584436 250 0 0 -1.5077744 -3.4001036 -91.385414 0
-11.492659 -2.7387075 0.17467485 250 0 0 -2.9487422 -3.9142401 -89.908241 0
-11.483843 -2.9321282 0.15537208 250 0 0 -1.3575 -3.7739909 -88.782608 0
-11.491689 -3.0007277 0.14195538 250 0 0 -1.7195033 -3.910543 -90.105881 0
-11.485874 -3.1377642 0.13552393 250 0 0 -2.8028252 -5.7029715 -93.67363 0
-11.449824 -3.3294656 0.13118882 250 0 0 -1.0984181 -3.6734502 -99.570961 0
-11.459291 -3.3935931 0.13133679 250 0 0 -0.21636522 -3.0564456 -99.959717 0
-11.43376 -3.524693 0.09541519 250 0 0 -0.520046 -2.4346046 -99.639694 0
-11.427912 -3.7503462 0.077168718 250 0 0 -1.8910669 -3.4168968 -96.667274 0
-11.397337 -3.818294 0.081831731 250 0 0 -0.78067678 -2.4874625 -94.119492 0
-11.411236 -3.9546924 0.091313422 250 0 0 -1.1799338 -2.5618973 -89.560776 0
-11.408027 -4.1632543 0.078821816 250 0 0 1.8300802 -2.0429595 -87.57164 0
-11.382811 -4.3667312 0.029888796 250 0 0 -1.6823786 -1.8525559 -91.948631 0
-11.390462 -4.4389939 0.044597305 250 0 0 -1.7917999 -1.054318 -92.792725 0
-11.357265 -4.5623889 0.051421791 250 0 0 -1.0073931 -1.0774071 -96.42482 0
-11.326895 -4.7547379 0.0087114191 250 0 0 0.43815434 -1.0085425 -95.886253 0
-11.318414 -4.8319526 0.0088810734 250 0 0 -0.084312417 -1.0674371 -94.805466 0
-11.297957 -4.9788027 -0.00097241398 250 0 0 -0.71896106 -1.7538999 -92.967239 0
-11.280168 -5.1828036 0.01514529 250 0 0 -1.3484377 -3.2200975 -88.138687 0
-11.272588 -5.3813367 -0.0055036754 250 0 0 -0.3653875 -2.5321918 -87.310425 0
-11.267035 -5.4448915 -0.033221923 250 0 0 -0.53676414 -2.4185088 -87.621468 0
-11.264762 -5.5761099 -0.062484365 250 0 0 -3.2404141 -1.7365131 -90.605881 0
-11.256456 -5.7666879 -0.064553678 250 0 0 -3.2272933 -0.17205676 -97.32412 0
-11.246328 -5.8301139 -0.067152619 250 0 0 -1.8237572 0.11862168 -98.366852 0
-11.237261 -5.9555182 -0.11504416 250 0 0 -1.6892828 1.3300174 -99.646835 0
-11.220282 -6.1874824 -0.12828404 250 0 0 -2.6695278 0.3272163 -96.105827 0
-11.232946 -6.3908572 -0.10374726 250 0 0 -1.5866196 -0.61365789 -91.903076 0
-11.216614 -6.4447727 -0.11179531 250 0 0 -0.10600479 -0.42437863 -91.475212 0
-11.238397 -6.5752654 -0.11684315 250 0 0 0.35021269 -0.67362273 -90.131798 0
-11.255607 -6.7760739 -0.17661503 250 0 0 -3.2551999 -1.4251566 -93.266441 0
-11.214389 -6.8518229 -0.17459309 250 0 0 -3.6965115 -1.6205398 -95.304771 0
-11.248622 -6.983706 -0.16838777 250 0 0 -3.5707517 -2.3401611 -99.857727 0
-11.237474 -7.1792927 -0.17746279 250 0 0 0.24547881 -2.5105569 -100.61456 0
-11.227888 -7.2461348 -0.19872516 250 0 0 0.85902208 -2.4998679 -99.625954 0
-11.266235 -7.3944454 -0.24674466 250 0 0 1.6539868 -2.8332777 -96.427818 0
-11.283621 -7.6159525 -0.21676368 250 0 0 -0.78947282 -2.3512506 -91.710762 0
-11.311902 -7.7896309 -0.22005862 250 0 0 1.6139467 -3.2416584 -88.996979 0
-11.331323 -7.8503284 -0.24768284 250 0 0 1.0404619 -3.238399 -89.760231 0
-11.354822 -7.9853492 -0.26609614 250 0 0 -1.2859831 -1.1023213 -92.901176 0
-11.367206 -8.1781197 -0.24909802 250 0 0 -2.7816191 -2.4374135 -96.53524 0
-11.352518 -8.2347269 -0.24873209 250 0 0 -3.0643835 -1.7095499 -97.913513 0
-11.35325 -8.3512669 -0.24639128 250 0 0 -1.0251981 -1.5907413 -97.479416 0
-11.380952 -8.5263824 -0.27695921 250 0 0 -0.72214395 -1.3471867 -94.698242 0
-11.421853 -8.5835037 -0.29790851 250 0 0 -1.1646366 -1.985808 -93.398758 0
-11.448228 -8.6947031 -0.29420248 250 0 0 -1.3412397 -1.7521302 -91.661972 0
-11.512467 -8.8427057 -0.26859814 250 0 0 -1.2926418 -2.2504263 -92.100365 0
-11.588342 -8.978755 -0.30361512 250 0 0 -1.6063801 -1.9275329 -94.656975 0
-11.602027 -9.0331917 -0.30715388 250 0 0 -2.1343637 -1.31522 -96.337624 0
-11.616177 -9.1418695 -0.32392824 250 0 0 -3.0398734 -1.0748435 -98.154289 0
-11.647691 -9.3128424 -0.29284739 250 0 0 -3.4832449 -1.5567529 -102.77943 0
-11.653437 -9.3532705 -0.29558152 250 0 0 -1.9219674 -2.3724995 -102.59593 0
-11.657697 -9.433773 -0.32111958 250 0 0 -1.2707993 -1.9329383 -102.79021 0
-11.673821 -9.6000957 -0.34101239 250 0 0 -0.65297478 -0.70347762 -98.888466 0
-11.689544 -9.7716494 -0.34300202 250 0 0 -0.77135634 -2.1089418 -94.014206 0
-11.725749 -9.8314686 -0.33788919 250 0 0 -0.70895553 -2.4812126 -91.822136 0
-11.736597 -9.930047 -0.34189939 250 0 0 0.2754173 -2.8132944 -90.663879 0
-11.769907 -10.093737 -0.38689676 250 0 0 -0.52329648 -1.7322581 -90.471207 0
-11.77712 -10.160419 -0.3958368 250 0 0 -1.0497011 -1.5035753 -90.952629 0
-11.791897 -10.283538 -0.41696104 250 0 0 -4.4815173 -3.0048234 -93.434944 0
-11.785181 -10.460549 -0.40356338 250 0 0 -3.1950161 -2.6875892 -97.213615 0
-11.783069 -10.514792 -0.40810728 250 0 0 -2.131958 -1.7694265 -97.498505 0
-11.798251 -10.636118 -0.4326435 250 0 0 -1.3001521 -1.835389 -97.879799 0
-11.808054 -10.849149 -0.4590601 250 0 0 -1.4074607 -4.1632643 -95.134071 0
-11.877273 -11.060076 -0.44619632 250 0 0 -3.2589295 -6.3612757 -89.897224 0
-11.877815 -11.111673 -0.44295642 250 0 0 -3.1420479 -6.6699991 -90.590935 0
-11.88568 -11.234317 -0.44466829 250 0 0 -1.5457155 -6.5773139 -89.504082 0
-11.926581 -11.413707 -0.51171356 250 0 0 -3.001519 -5.6159539 -91.973961 0
-11.917392 -11.483169 -0.51541418 250 0 0 -4.6615663 -5.1107759 -93.294655 0
-11.945405 -11.622453 -0.49033022 250 0 0 -4.3901219 -5.761271 -94.500076 0
-11.944621 -11.797233 -0.50172246 250 0 0 -1.2923272 -5.0991435 -98.8927 0
-11.934453 -11.986108 -0.54908067 250 0 0 -1.1238735 -4.8279009 -97.065292 0
-11.939761 -12.045862 -0.57235175 250 0 0 -0.99565715 -5.7278514 -95.621376 0
-11.939933 -12.166593 -0.58553553 250 0 0 -1.0635023 -4.7335906 -93.077744 0
-11.969679 -12.333445 -0.595927 250 0 0 -1.6382937 -2.1329598 -92.326157 0
-11.968814 -12.410864 -0.57435083 250 0 0 -0.46400347 -1.4479458 -91.293777 0
-11.99039 -12.536129 -0.61766464 250 0 0 -1.3101629 -4.1532316 -91.06871 0
-11.975093 -12.72656 -0.65166473 250 0 0 -3.5045068 -2.8201029 -93.45665 0
-11.986413 -12.791956 -0.64370799 250 0 0 -2.732878 -2.06968 -94.156311 0
-11.98964 -12.916317 -0.64418232 250 0 0 -1.1198885 -2.2502532 -96.742142 0
-11.992877 -13.108456 -0.682805 250 0 0 -0.12929896 -1.6294346 -96.204987 0
-11.98769 -13.293699 -0.70453882 250 0 0 -1.6264699 -2.1189146 -95.688087 0
-11.988029 -13.355775 -0.70230383 250 0 0 -1.3910277 -1.2650255 -92.491982 0
-12.004326 -13.486737 -0.69936877 250 0 0 -2.8938093 -1.2495964 -91.170059 0
-12.008794 -13.692491 -0.72372407 250 0 0 -1.1365522 -1.7246352 -88.294632 0
-12.022348 -13.758807 -0.75080717 250 0 0 -2.0750034 -2.0752919 -89.588516 0
-11.992483 -13.889995 -0.75927532 250 0 0 -4.0171561 -0.17399065 -92.870743 0
-11.995593 -14.084576 -0.74845159 250 0 0 -2.6337657 -0.25131217 -96.901672 0
-11.99266 -14.284838 -0.77359909 250 0 0 -1.8255103 -0.36624557 -96.705467 0
-12.003426 -14.353354 -0.79039276 250 0 0 -1.8053695 -1.6270113 -95.701561 0
-11.992736 -14.489992 -0.7864219 250 0 0 -2.171597 -0.43276936 -94.725304 0
-12.012003 -14.683612 -0.77619755 250 0 0 -1.6454607 -1.5793884 -92.453926 0
-12.01627 -14.758677 -0.76951915 250 0 0 -1.0517759 -1.527548 -91.579269 0
-12.029615 -14.884731 -0.82200265 250 0 0 -1.6908221 -3.2664127 -90.775391 0
-12.023772 -15.098492 -0.835428 250 0 0 -3.0573213 -0.84079605 -95.087547 0
-12.044294 -15.167038 -0.83622879 250 0 0 -3.1899657 -0.77811456 -95.86937 0
-12.034463 -15.28706 -0.83581227 250 0 0 -2.7230408 -0.23840936 -98.365707 0
-12.019823 -15.510558 -0.86132729 250 0 0 -2.5363712 -1.1126325 -94.967628 0
-11.999607 -15.700702 -0.88431633 250 0 0 -3.1062136 -1.4512527 -85.194687 0
-12.004029 -15.797587 -0.88624883 250 0 0 -5.0124807 -1.6423242 -81.991959 0
-11.983691 -15.910564 -0.89941227 250 0 0 -3.8332121 0.31065294 -79.128403 0
-11.962077 -16.127705 -0.95922703 250 0 0 -4.1852531 -0.97956735 -76.126434 0
-11.942294 -16.198879 -0.95851773 250 0 0 -4.4412894 -0.76270467 -76.428017 0
-11.893861 -16.319027 -0.95850223 250 0 0 -4.0292869 -0.7111035 -75.019951 0
-11.820645 -16.495661 -0.9454782 250 0 0 -1.3292003 -0.72178572 -72.42421 0
-11.80516 -16.562181 -0.9631899 250 0 0 -0.75177401 -1.3243092 -71.095665 0
-11.730485 -16.707596 -0.99362588 250 0 0 1.1213531 -1.0489243 -67.961136 0
-11.615582 -16.873032 -1.0175464 250 0 0 1.9887705 -2.7651765 -58.481232 0
-11.533513 -17.047792 -1.0366091 250 0 0 0.27393436 -0.23490956 -54.041294 0
-11.49353 -17.188538 -1.0373602 250 0 0 2.1620469 0.24649926 -51.208931 0
-11.429655 -17.312046 -1.0865713 250 0 0 1.3265936 -2.129055 -49.082748 0
-11.30702 -17.496944 -1.1043168 250 0 0 0.75792354 -2.0890493 -50.25452 0
-11.286764 -17.565205 -1.1114541 250 0 0 -0.068223715 -2.2924321 -51.319683 0
-11.180766 -17.651741 -1.0999174 250 0 0 1.785547 -1.0478817 -52.389618 0
-11.04974 -17.813061 -1.1700598 250 0 0 2.8103814 -1.0747541 -49.488312 0
-10.908909 -17.988873 -1.1971675 250 0 0 0.75489116 -2.3786659 -45.245277 0
-10.895813 -18.08231 -1.2072077 250 0 0 0.084330447 -2.0319147 -42.661495 0
-10.799143 -18.176723 -1.1931132 250 0 0 1.5027773 -1.3567826 -42.254101 0
-10.674294 -18.378208 -1.2530805 250 0 0 2.802788 -3.0409195 -42.174545 0
-10.625866 -18.445421 -1.2574265 250 0 0 2.3398879 -2.754832 -44.006664 0
-10.51384 -18.533434 -1.2562032 250 0 0 2.7307234 -2.6393442 -45.922646 0
-10.380593 -18.681271 -1.2652555 250 0 0 3.9286649 -1.2429092 -49.184402 0
-10.222892 -18.831766 -1.2909454 250 0 0 5.7165203 -0.36677 -47.559639 0
-10.172841 -18.879364 -1.3117484 250 0 0 6.2772684 -1.5058366 -46.165718 0
-10.069366 -19.014032 -1.3225813 250 0 0 6.223938 -1.7347736 -42.985806 0
-9.9258299 -19.158476 -1.3283046 250 0 0 5.6554189 0.15124777 -42.74453 0
-9.8808956 -19.211809 -1.3364731 250 0 0 5.5702796 -0.26591703 -41.656231 0
-9.8005238 -19.328241 -1.3964769 250 0 0 4.5712156 0.53263408 -42.826855 0
-9.619545 -19.484575 -1.3854331 250 0 0 1.4681472 0.91315228 -45.673111 0
-9.5838432 -19.549965 -1.380721 250 0 0 0.49632752 -0.6662401 -47.058586 0
-9.4838161 -19.614601 -1.403886 250 0 0 3.1187882 0.8495993 -48.708286 0
-9.3210287 -19.777405 -1.4199312 250 0 0 4.6001997 2.7733603 -46.470116 0
-9.1589108 -19.930387 -1.4487152 250 0 0 3.9299943 -0.09681242 -43.070427 0
-9.1333723 -20.024164 -1.4509325 250 0 0 2.8477805 -0.36595094 -41.638073 0
-9.0309763 -20.080822 -1.4392701 250 0 0 3.2718318 -0.17704315 -41.286961 0
-8.9080858 -20.255886 -1.5128499 250 0 0 3.2242281 -1.2441953 -39.983746 0
-8.8603354 -20.319975 -1.5279803 250 0 0 1.8600515 -0.54076779 -41.650555 0
-8.7539349 -20.425615 -1.5379518 250 0 0 -0.85306281 -0.071085505 -45.836594 0
-8.6070242 -20.555002 -1.532886 250 0 0 1.383379 1.71988 -49.806732 0
-8.4339476 -20.69606 -1.5676483 250 0 0 2.6244473 1.3584024 -48.225216 0
-8.3717527 -20.752808 -1.571553 250 0 0 3.4686453 0.10663521 -46.794956 0
-8.2649498 -20.84931 -1.5970442 250 0 0 3.486907 -0.63460124 -43.943707 0
-8.1147947 -21.012678 -1.6083668 250 0 0 1.8661023 0.00073080708 -41.847549 0
-8.0547972 -21.062822 -1.6062819 250 0 0 2.8770244 -0.073968902 -41.24588 0
-7.9526606 -21.16844 -1.6476203 250 0 0 2.2574973 -2.012573 -40.474854 0
-7.7918115 -21.30061 -1.6968083 250 0 0 0.79158044 -1.1738378 -43.6493 0
-7.7555809 -21.365515 -1.7008312 250 0 0 0.21334773 -0.42702433 -45.458218 0
-7.6182466 -21.426466 -1.6913736 250 0 0 2.280123 0.79088598 -47.830357 0
-7.4468389 -21.560162 -1.7236601 250 0 0 4.7947197 -1.4544992 -46.258823 0
-7.2858839 -21.732281 -1.7443124 250 0 0 3.0924294 -2.3192432 -43.63615 0
-7.248786 -21.819859 -1.7394366 250 0 0 1.6320013 -2.4819953 -42.486366 0
-7.1451421 -21.894619 -1.7417982 250 0 0 2.0723186 -2.2428594 -43.198479 0
-7.0081553 -22.067282 -1.8071309 250 0 0 1.5387465 -1.7321303 -43.807529 0
-6.9575601 -22.122158 -1.825092 250 0 0 0.43510443 -0.98554713 -44.992973 0
-6.8334837 -22.205927 -1.8189987 250 0 0 0.14169298 1.020296 -47.755939 0
-6.6820145 -22.345098 -1.8175236 250 0 0 2.2573345 -0.17362432 -49.715549 0
-6.5183802 -22.502632 -1.8508848 250 0 0 3.751653 -0.85726041 -47.914528 0
-6.4757977 -22.557161 -1.8850614 250 0 0 3.8345549 -2.3523669 -47.069221 0
-6.3571687 -22.653818 -1.896612 250 0 0 4.0101075 -1.097597 -45.292236 0
-6.2119231 -22.804701 -1.8879969 250 0 0 3.4671175 -0.95955974 -41.949848 0
-6.1694727 -22.856695 -1.9008471 250 0 0 3.823005 -1.2131336 -41.029694 0
-6.0809503 -22.956297 -1.9478285 250 0 0 2.4719872 -1.5650636 -41.672306 0
-5.9248233 -23.108574 -1.9822074 250 0 0 0.732867 -2.2371943 -45.782475 0
-5.8701572 -23.145205 -1.9828212 250 0 0 1.0371814 -1.4521691 -47.611927 0
-5.7535233 -23.219923 -1.9743428 250 0 0 3.5982368 -0.24338952 -48.538437 0
-5.5948949 -23.372684 -2.0277832 250 0 0 4.9705296 0.12530202 -47.137253 0
-5.4266448 -23.530655 -2.0374594 250 0 0 5.4625397 -0.73058861 -45.163166 0
-5.4037204 -23.617666 -2.0351973 250 0 0 3.6666675 -1.0423799 -44.204567 0
-5.2988715 -23.694504 -2.0561814 250 0 0 4.1773577 0.89308035 -45.854092 0
-5.1538353 -23.836477 -2.1210284 250 0 0 2.273133 0.54554796 -47.937962 0
-5.0924535 -23.886293 -2.129323 250 0 0 2.5355792 0.92728287 -48.862831 0
-4.9815917 -23.977125 -2.1419997 250 0 0 0.78411281 0.4951449 -51.246418 0
-4.8020225 -24.087109 -2.1438282 250 0 0 2.5773005 2.3198125 -52.1758 0
-4.7514706 -24.129827 -2.1618299 250 0 0 3.2873108 2.1704216 -51.176956 0
-4.6198144 -24.212156 -2.1928153 250 0 0 4.101614 2.038415 -47.704838 0
-4.4364901 -24.351749 -2.2316289 250 0 0 2.4993987 1.1403912 -38.790379 0
-4.2334557 -24.45739 -2.2357838 250 0 0 2.2139876 2.1381617 -31.777822 0
-4.1665425 -24.507927 -2.2406533 250 0 0 2.1191831 0.98256874 -28.212606 0
-4.0503697 -24.607861 -2.2965214 250 0 0 1.6607412 -1.0888951 -24.643148 0
-3.8323431 -24.710083 -2.2871041 250 0 0 0.2769025 0.049277142 -25.725735 0
-3.7644277 -24.719799 -2.2952738 250 0 0 1.3302976 0.34915173 -26.279314 0
-3.6181166 -24.76326 -2.2877927 250 0 0 4.108871 0.0082685463 -23.943377 0
-3.3943865 -24.818462 -2.3326232 250 0 0 5.7284608 -1.6196767 -16.748901 0
-3.1599894 -24.869123 -2.3157649 250 0 0 4.1412988 -2.0754561 -4.9278359 0
-3.0839729 -24.865534 -2.3087907 250 0 0 2.5861566 -3.2529171 -2.3768532 0
-2.943464 -24.877434 -2.3148496 250 0 0 5.4792256 -2.7756414 3.8810971 0
-2.7120054 -24.896498 -2.3785796 250 0 0 4.9636283 -3.080862 7.8454418 0
-2.6347513 -24.88027 -2.3640924 250 0 0 3.8299875 -2.1057901 8.1429253 0
-2.4890654 -24.879749 -2.3639157 250 0 0 3.2851982 -1.6169639 9.5301981 0
-2.2751911 -24.849243 -2.3598547 250 0 0 4.8996496 -2.0359874 12.350266 0
-2.2035944 -24.834854 -2.3761623 250 0 0 5.470839 -2.1238058 13.924371 0
-2.0506382 -24.802614 -2.3804469 250 0 0 5.9102879 -4.1501055 18.366283 0
-1.8079398 -24.772537 -2.3714542 250 0 0 4.309607 -5.4452977 24.551907 0
-1.6003188 -24.710985 -2.35305 250 0 0 6.3043756 -6.1242352 28.455347 0
-1.5320858 -24.689266 -2.3752348 250 0 0 6.740777 -7.3105021 29.212416 0
-1.3983034 -24.640692 -2.4052649 250 0 0 5.2286077 -5.9538288 29.184452 0
-1.1952509 -24.56497 -2.3920846 250 0 0 3.3463998 -3.3637085 28.701117 0
-1.1287907 -24.530428 -2.3716805 250 0 0 4.1410022 -2.6349921 28.706572 0
-1.0062575 -24.460751 -2.3928759 250 0 0 5.1511979 -4.2980671 30.322266 0
-0.7874673 -24.364157 -2.4021137 250 0 0 5.9657874 -6.9084787 35.398834 0
-0.58012509 -24.274263 -2.3722699 250 0 0 4.3406863 -7.5727725 39.353512 0
-0.53829551 -24.229492 -2.3662012 250 0 0 4.9680076 -6.8764305 40.01096 0
-0.40971893 -24.160276 -2.3515213 250 0 0 5.4260001 -8.3541727 42.152534 0
-0.23262607 -24.027287 -2.3879855 250 0 0 4.7959704 -7.8668585 40.100143 0
-0.18727748 -23.977919 -2.3745589 250 0 0 4.7395668 -7.8063502 40.216835 0
-0.063385516 -23.909243 -2.3850875 250 0 0 5.1922984 -7.5530996 38.079025 0
0.094765969 -23.772167 -2.3711925 250 0 0 8.7378368 -5.5568652 37.933025 0
0.14483167 -23.717352 -2.3785796 250 0 0 8.8864946 -5.8998609 39.381351 0
0.26872393 -23.621628 -2.3977885 250 0 0 7.897717 -7.5677295 42.560703 0
0.47163501 -23.479565 -2.3680005 250 0 0 5.735939 -5.5190744 46.877823 0
0.62530696 -23.31419 -2.3549256 250 0 0 6.4197054 -7.3184137 48.050541 0
0.67749345 -23.258074 -2.3761795 250 0 0 6.5587468 -8.1929865 48.280525 0
0.78764635 -23.143587 -2.3924 250 0 0 5.4717956 -7.7437763 46.164631 0
0.92614257 -22.991714 -2.3793147 250 0 0 5.3571901 -5.1724153 42.613968 0
0.96785057 -22.940048 -2.3673232 250 0 0 7.215085 -4.0974731 42.626816 0
1.071609 -22.843826 -2.3805196 250 0 0 8.2974253 -4.3331342 42.991447 0
1.2607534 -22.687767 -2.3937786 250 0 0 7.8314815 -5.3082495 43.728134 0
1.4474936 -22.545198 -2.3500919 250 0 0 5.1020212 -7.0264058 45.082027 0
1.4846745 -22.490725 -2.3471644 250 0 0 6.0873365 -6.56072 45.514187 0
1.5995924 -22.39554 -2.359246 250 0 0 6.3525009 -7.3942065 46.615013 0
1.7660612 -22.223392 -2.3880105 250 0 0 4.7734466 -4.1963863 44.372536 0
1.8347464 -22.171345 -2.3683822 250 0 0 4.88972 -3.8768177 43.681335 0
1.9192976 -22.046873 -2.3454719 250 0 0 6.3263335 -3.0126219 39.95882 0
2.0952969 -21.90106 -2.3611269 250 0 0 9.5066071 -4.7143168 40.263554 0
2.2572808 -21.721092 -2.3582013 250 0 0 8.4715471 -3.9923873 42.220112 0
2.3258033 -21.671186 -2.3419533 250 0 0 8.6712055 -4.3394628 45.237629 0
2.44807 -21.569332 -2.3088689 250 0 0 5.4386578 -7.160254 46.499741 0
2.6201851 -21.401348 -2.3285973 250 0 0 5.9707637 -8.915535 47.630009 0
2.6863694 -21.350351 -2.3607016 250 0 0 5.2623849 -8.2501621 45.763664 0
2.7687984 -21.207916 -2.337271 250 0 0 5.3721018 -5.899888 43.102783 0
2.9130855 -21.041965 -2.2902753 250 0 0 6.0171518 -5.9330554 41.592449 0
2.9694507 -20.989941 -2.2854786 250 0 0 7.568285 -6.5453095 41.229778 0
3.0681546 -20.870304 -2.3121166 250 0 0 8.7642822 -6.9584985 41.434505 0
3.2341595 -20.699068 -2.3126965 250 0 0 8.8684921 -8.5171995 45.843819 0
3.3879066 -20.507168 -2.2488365 250 0 0 6.6547885 -9.5659084 49.387882 0
3.4528618 -20.447958 -2.2383177 250 0 0 7.1104922 -11.273376 51.138584 0
3.5777035 -20.33128 -2.3137057 250 0 0 5.9597096 -12.466365 50.111626 0
3.719641 -20.151815 -2.2990038 250 0 0 6.0846348 -10.500365 44.927383 0
3.7578862 -20.092863 -2.280834 250 0 0 6.9933834 -9.2994928 43.933876 0
3.8652 -19.995941 -2.2898018 250 0 0 9.2973633 -10.182876 41.969166 0
3.9834852 -19.813211 -2.3199761 250 0 0 10.634418 -6.5816674 41.292648 0
4.0518079 -19.762163 -2.3297019 250 0 0 9.4056597 -6.724473 42.555561 0
4.1826162 -19.658939 -2.2961769 250 0 0 7.564178 -7.1271596 43.517677 0
4.3241844 -19.496363 -2.2408824 250 0 0 9.2708559 -9.3537083 44.68121 0
4.5028577 -19.331551 -2.2957044 250 0 0 6.2119951 -10.432306 43.854065 0
4.5534883 -19.268379 -2.2933207 250 0 0 4.888268 -9.7234221 42.611851 0
4.6693821 -19.169308 -2.2676868 250 0 0 4.7999287 -9.3111849 40.569172 0
4.810812 -19.016966 -2.2641275 250 0 0 8.8071651 -8.8254099 39.987377 0
4.8611703 -18.967884 -2.283169 250 0 0 9.476162 -8.1380253 40.097931 0
4.9691224 -18.854275 -2.2754512 250 0 0 9.7606964 -10.677753 42.667084 0
5.1623588 -18.698587 -2.2549493 250 0 0 6.3638816 -11.807136 47.788246 0
5.3151298 -18.532089 -2.2284682 250 0 0 8.8655443 -12.240157 48.491802 0
5.3751774 -18.475079 -2.2618248 250 0 0 8.3183489 -12.84156 48.250061 0
5.4779663 -18.358353 -2.2812302 250 0 0 6.8979769 -12.478249 45.718746 0
5.6310482 -18.204334 -2.2686696 250 0 0 5.7513452 -11.140314 40.637909 0
5.6733208 -18.151762 -2.2393315 250 0 0 7.9588571 -10.326772 39.958324 0
5.7650065 -18.055431 -2.2340467 250 0 0 9.5017719 -12.250611 38.676388 0
5.9103541 -17.90202 -2.2494497 250 0 0 9.5781689 -14.210514 41.121113 0
5.9380512 -17.839338 -2.2243509 250 0 0 9.8020716 -14.815101 42.769924 0
6.0884404 -17.738735 -2.1976459 250 0 0 7.5295463 -16.311562 44.957191 0
6.2103028 -17.587946 -2.1974089 250 0 0 7.496913 -18.238466 47.678913 0
6.3878074 -17.428642 -2.2539182 250 0 0 4.417572 -15.476929 46.099796 0
6.4209204 -17.358606 -2.2472379 250 0 0 4.218195 -14.526474 45.518738 0
6.5264397 -17.26631 -2.2248068 250 0 0 3.6969509 -12.792774 44.238914 0
6.6615348 -17.109047 -2.2305028 250 0 0 7.8297853 -10.936711 42.245441 0
6.7067714 -17.047447 -2.2368913 250 0 0 8.3125811 -10.527046 42.86911 0
6.8272262 -16.934896 -2.2491157 250 0 0 8.8474483 -11.928092 44.512146 0
7.0121074 -16.778513 -2.1909609 250 0 0 7.0376248 -13.635487 46.523438 0
7.1567769 -16.621925 -2.1812398 250 0 0 7.8335843 -13.785158 47.82415 0
7.2214789 -16.576065 -2.2079968 250 0 0 7.427887 -14.145988 47.813255 0
7.309413 -16.449549 -2.227494 250 0 0 5.999567 -12.141266 45.744961 0
7.4767585 -16.310566 -2.2072911 250 0 0 6.223135 -10.715925 43.387547 0
7.5361524 -16.265285 -2.1973562 250 0 0 8.4666033 -8.8335485 42.74474 0
7.6415949 -16.145845 -2.1987932 250 0 0 8.9895267 -8.9454699 41.586662 0
7.815383 -15.970393 -2.1934569 250 0 0 8.6917791 -11.420385 45.836349 0
7.8775315 -15.92163 -2.1943746 250 0 0 8.0304813 -11.746544 47.923878 0
8.0032644 -15.827747 -2.1741688 250 0 0 7.2830181 -11.596521 48.035114 0
8.1518764 -15.668027 -2.165832 250 0 0 7.7952337 -13.169589 50.480049 0
8.3065262 -15.505672 -2.1854467 250 0 0 5.7342305 -12.455114 49.444668 0
8.3654041 -15.456482 -2.1763518 250 0 0 4.6551991 -12.423682 49.407784 0
8.4477806 -15.348944 -2.1673717 250 0 0 6.2718997 -10.827832 47.334457 0
8.5551348 -15.160781 -2.1666913 250 0 0 8.3945923 -10.963568 49.575356 0
8.6691084 -14.960524 -2.1659756 250 0 0 7.6268039 -14.042333 56.548935 0
8.7213535 -14.906694 -2.1644258 250 0 0 7.3435903 -13.617318 60.298103 0
8.78127 -14.786737 -2.1468368 250 0 0 5.0225263 -13.491028 65.271416 0
8.8972445 -14.59073 -2.1495049 250 0 0 3.8187611 -13.805628 71.986618 0
8.9464331 -14.52685 -2.1667304 250 0 0 3.7175212 -13.652722 71.996643 0
8.9909286 -14.389049 -2.1617403 250 0 0 3.8220582 -10.909952 71.034637 0
9.0419788 -14.186535 -2.1139295 250 0 0 3.7974784 -10.069258 71.548111 0
9.0653858 -14.116212 -2.099261 250 0 0 4.2503114 -10.611503 73.411964 0
9.1000586 -13.970433 -2.1276267 250 0 0 4.6986322 -12.268236 77.451317 0
9.1299067 -13.749475 -2.1270289 250 0 0 2.7368598 -14.100278 84.171989 0
9.1609755 -13.548973 -2.0668831 250 0 0 1.2091831 -12.533901 92.733536 0
9.1646099 -13.480438 -2.0555975 250 0 0 1.7978348 -12.973925 96.184624 0
9.1924191 -13.325706 -2.0780566 250 0 0 1.1886969 -14.428041 100.0224 0
9.2031412 -13.099677 -2.0627031 250 0 0 -0.31805557 -11.754646 101.34496 0
9.2202587 -13.015428 -2.0466201 250 0 0 -1.6963454 -12.359618 100.59795 0
9.1950636 -12.876482 -2.0232692 250 0 0 2.0205333 -10.804984 99.739441 0
9.1692553 -12.657878 -2.0317357 250 0 0 3.3736706 -13.521986 104.17242 0
9.1684551 -12.422563 -2.0324495 250 0 0 1.6534356 -15.804252 110.79617 0
9.2037621 -12.333702 -2.0094888 250 0 0 -0.48200795 -15.234013 112.58807 0
9.1519527 -12.190717 -1.984974 250 0 0 -0.67257476 -13.910426 113.49973 0
9.1269169 -11.949092 -1.986659 250 0 0 -0.31973842 -16.171341 116.772 0
9.1122952 -11.870811 -1.9903733 250 0 0 -0.15032032 -14.923764 116.28932 0
9.0842161 -11.714565 -1.9388616 250 0 0 -1.8514441 -14.456339 116.55827 0
8.9856663 -11.473443 -1.8979161 250 0 0 1.5983398 -13.026771 114.46162 0
8.9280901 -11.262888 -1.8931739 250 0 0 3.268193 -14.583219 119.61172 0
8.9027681 -11.19555 -1.877975 250 0 0 2.5663502 -15.177462 121.43719 0
8.8669777 -11.058322 -1.839884 250 0 0 -1.3787969 -14.846857 128.48918 0
8.806778 -10.831776 -1.764612 250 0 0 -2.7386327 -13.42185 130.54514 0
8.7870378 -10.762717 -1.7331023 250 0 0 -2.8897786 -14.214625 131.68381 0
8.7474966 -10.59962 -1.7437309 250 0 0 -2.8434248 -16.934111 131.68587 0
8.675004 -10.394556 -1.7164723 250 0 0 -2.8872793 -15.92427 128.95691 0
8.6773338 -10.312823 -1.6959184 250 0 0 -3.7146666 -16.139198 127.65128 0
8.610033 -10.204659 -1.6938645 250 0 0 -0.3640075 -13.662741 125.16182 0
8.5032959 -10.017558 -1.6652316 250 0 0 1.7227355 -15.784468 128.81696 0
8.4355621 -9.8157368 -1.6586497 250 0 0 -0.43142989 -15.712805 132.21423 0
8.435276 -9.7340994 -1.6241183 250 0 0 -1.7856146 -15.229276 134.03612 0
8.3791227 -9.6153107 -1.5967382 250 0 0 -0.92776865 -15.155728 134.49432 0
8.3048401 -9.4080095 -1.5887471 250 0 0 -0.19765413 -17.211683 134.64697 0
8.290679 -9.3332195 -1.5947154 250 0 0 0.075817801 -16.710854 134.06142 0
8.2302999 -9.2066441 -1.5658773 250 0 0 -1.6492206 -16.303305 131.94257 0
8.1326628 -9.0258913 -1.5305237 250 0 0 2.7149045 -14.191054 126.84057 0
8.096386 -8.9580555 -1.5169501 250 0 0 3.4922891 -14.520278 126.83683 0
8.0009537 -8.8504581 -1.5132247 250 0 0 4.8938103 -15.313174 129.28539 0
7.9078197 -8.6162872 -1.4942709 250 0 0 0.96587318 -16.502584 133.48506 0
7.807107 -8.432498 -1.4408873 250 0 0 0.60273874 -15.335835 134.284 0
7.7738152 -8.3635263 -1.4302242 250 0 0 1.0469514 -15.680115 134.72563 0
7.6928868 -8.2356777 -1.4335867 250 0 0 2.9334183 -16.000124 133.81892 0
7.5780144 -8.052165 -1.396647 250 0 0 0.94476241 -16.543386 132.25595 0
7.5443239 -8.0016022 -1.4035894 250 0 0 0.18412538 -16.235888 130.21288 0
7.4519129 -7.9023051 -1.3741115 250 0 0 3.5882025 -14.628871 129.16106 0
7.3077407 -7.7287769 -1.360185 250 0 0 4.688457 -16.328726 130.50124 0
7.1967964 -7.5377607 -1.3349811 250 0 0 1.3817451 -15.632299 135.43176 0
7.1545472 -7.4816761 -1.3201039 250 0 0 -0.527107 -16.031122 135.08276 0
7.0554819 -7.3845487 -1.2930447 250 0 0 1.0463036 -14.670666 136.34776 0
6.9168992 -7.2060218 -1.2961252 250 0 0 1.6541548 -16.320152 135.46762 0
6.8709817 -7.1499019 -1.2903121 250 0 0 0.74299902 -15.401434 134.55914 0
6.7771196 -7.0424075 -1.2517129 250 0 0 0.56631631 -15.34406 133.03484 0
6.6260824 -6.8995223 -1.2341107 250 0 0 3.3698895 -15.639147 131.22565 0
6.5684032 -6.8584256 -1.2410134 250 0 0 4.4161673 -15.313512 131.3166 0
6.4750919 -6.7313161 -1.2367415 250 0 0 3.5110989 -16.498211 134.43033 0
0 0 0 1 0 0 0 1 0 0 0 1 0 0 0 0 0 525 1 0 0
