ply
format ascii 1.0
comment PCL generated
element vertex 580
property float x
property float y
property float z
property uchar red
property uchar green
property uchar blue
property float nx
property float ny
property float nz
property float curvature
element camera 1
property float view_px
property float view_py
property float view_pz
property float x_axisx
property float x_axisy
property float x_axisz
property float y_axisx
property float y_axisy
property float y_axisz
property float z_axisx
property float z_axisy
property float z_axisz
property float focal
property float scalex
property float scaley
property float centerx
property float centery
property int viewportx
property int viewporty
property float k1
property float k2
end_header
1.4060177 -1.6375884 -0.12697685 250 0 0 0.58983958 -10.332353 112.81908 0
1.4006037 -1.6035991 -0.12523656 250 0 0 1.3399391 -10.034392 113.4179 0
1.397557 -1.5868759 -0.12510996 250 0 0 1.7343695 -9.9430246 114.07617 0
1.3962301 -1.5493416 -0.12736449 250 0 0 1.9637944 -9.6002531 114.9229 0
1.3848814 -1.4762979 -0.10465173 250 0 0 1.8904784 -9.7034721 116.85058 0
1.3814801 -1.4498104 -0.095260136 250 0 0 1.9354768 -10.107003 117.28812 0
1.3787036 -1.4025211 -0.082259744 250 0 0 2.9278884 -11.549438 117.84022 0
1.3682132 -1.3416327 -0.077974908 250 0 0 3.5518081 -12.33269 117.39271 0
1.3444296 -1.2611315 -0.089412443 250 0 0 3.8408654 -10.941334 115.95639 0
1.3315189 -1.2248547 -0.0893047 250 0 0 3.7274942 -10.524614 115.2786 0
1.2994545 -1.1481082 -0.083545171 250 0 0 2.6541691 -11.043027 114.38301 0
1.2336614 -1.0381804 -0.039888799 250 0 0 2.8220103 -11.375144 112.04369 0
1.2258862 -1.0066413 -0.044327345 250 0 0 2.3795002 -12.238971 111.55216 0
1.1818918 -0.95811796 -0.047583185 250 0 0 2.3930824 -10.48458 111.48463 0
1.1306183 -0.8349824 -0.054215346 250 0 0 2.4036136 -8.1333857 113.06395 0
1.0782129 -0.6758582 -0.044153441 250 0 0 1.459204 -10.046902 115.53014 0
1.0410341 -0.63354379 -0.035562132 250 0 0 1.1001674 -9.4930077 116.08832 0
1.0135616 -0.53809845 -0.010167573 250 0 0 0.48360309 -10.708115 118.66007 0
0.9429186 -0.41911215 0.0024121252 250 0 0 2.7963216 -10.082411 121.0353 0
0.93141836 -0.35988903 -0.0049347272 250 0 0 2.3992035 -9.7592945 121.34769 0
0.86759615 -0.26385567 0.012296878 250 0 0 1.3930812 -10.117065 120.49583 0
0.78361231 -0.11915426 0.05239971 250 0 0 0.99183464 -9.9229555 118.51352 0
0.75668216 -0.085790865 0.047065932 250 0 0 1.0196216 -11.123055 117.84274 0
0.70473248 0.004066566 0.034842875 250 0 0 2.1944072 -9.2842627 117.54707 0
0.6211428 0.15706572 0.032775179 250 0 0 2.4864919 -9.1968975 119.60538 0
0.53405094 0.32511148 0.073206641 250 0 0 2.0750942 -8.3044262 121.06821 0
0.5219214 0.39366195 0.089132383 250 0 0 1.079061 -9.6067104 122.37018 0
0.47212723 0.46434152 0.096203394 250 0 0 2.5823386 -9.8772125 122.34467 0
0.41004255 0.63597292 0.077844925 250 0 0 3.3833246 -10.098969 121.91548 0
0.36885372 0.68867987 0.099742293 250 0 0 3.4248834 -9.8526382 121.01422 0
0.32795665 0.81699508 0.09781263 250 0 0 1.6986465 -11.739874 119.50876 0
0.22743426 0.94087845 0.12644936 250 0 0 3.2493858 -12.295133 115.9932 0
0.12458025 1.0852873 0.12485627 250 0 0 4.8520665 -10.314862 117.58935 0
0.11439155 1.1648017 0.12888142 250 0 0 4.0824852 -11.27968 118.34604 0
0.066059321 1.2737342 0.090627663 250 0 0 2.5401902 -10.993502 118.10188 0
-0.01307736 1.4890559 0.14326833 250 0 0 1.0118194 -10.687776 120.40533 0
-0.075354591 1.5044047 0.15684274 250 0 0 2.0961151 -10.206152 119.98878 0
-0.094526812 1.6595061 0.17046461 250 0 0 4.1268349 -11.356519 121.29666 0
-0.19247748 1.8245124 0.15672503 250 0 0 2.4207036 -10.873681 120.39553 0
-0.20265219 1.8826802 0.15954658 250 0 0 0.60507089 -11.613112 119.4757 0
-0.26876447 1.9605566 0.19344223 250 0 0 1.971341 -11.572857 116.42812 0
-0.35028952 2.0999484 0.16429545 250 0 0 2.7138562 -10.546977 114.63077 0
-0.47001168 2.2642145 0.17788374 250 0 0 2.2591317 -10.958491 115.7775 0
-0.48685127 2.3293169 0.16967936 250 0 0 1.6480272 -10.406005 116.22121 0
-0.56949866 2.4482794 0.21604776 250 0 0 0.8659907 -9.8958378 118.33701 0
-0.6535818 2.6097665 0.26936772 250 0 0 1.1223598 -10.659529 120.29793 0
-0.67108673 2.6771431 0.27878228 250 0 0 1.4108026 -11.75291 121.06841 0
-0.71281087 2.7964525 0.25986308 250 0 0 1.6335485 -12.564417 119.88169 0
-0.81264901 2.9375966 0.25676948 250 0 0 -0.14008094 -11.812938 116.40895 0
-0.85212046 2.9870656 0.28233868 250 0 0 0.65027171 -11.34014 115.6289 0
-0.91805935 3.0660489 0.26953536 250 0 0 2.0726061 -10.968637 114.66119 0
-1.0294595 3.2166133 0.2884714 250 0 0 2.7760234 -10.511619 117.28593 0
-1.1161175 3.3687248 0.28921711 250 0 0 1.9367067 -10.290107 119.49654 0
-1.1634022 3.4226475 0.31551084 250 0 0 2.215374 -10.152035 121.44986 0
-1.1782111 3.5459855 0.32265431 250 0 0 0.33057818 -10.707702 124.03635 0
-1.2771508 3.6984513 0.33928558 250 0 0 1.7855086 -10.558929 124.17655 0
-1.302126 3.7567427 0.32675475 250 0 0 1.3291276 -10.906215 123.69772 0
-1.3667136 3.8542325 0.30985659 250 0 0 0.090587072 -9.5702562 120.82464 0
-1.4669135 3.9964356 0.35526755 250 0 0 1.5733554 -9.3621273 117.91937 0
-1.5810143 4.1590419 0.36727533 250 0 0 3.4182806 -8.7393475 117.50982 0
-1.6177937 4.2218723 0.36789459 250 0 0 2.6988142 -9.0045071 118.725 0
-1.6645185 4.3646169 0.35513788 250 0 0 0.54622358 -10.938265 120.40685 0
-1.7708827 4.4909711 0.36708155 250 0 0 -2.7467155 -11.336394 122.5273 0
-1.8076286 4.5315037 0.37468603 250 0 0 -2.065527 -10.897799 122.24512 0
-1.87612 4.6508784 0.40109336 250 0 0 -0.63690239 -11.47124 123.15717 0
-1.9423089 4.8232689 0.36716935 250 0 0 -0.33565748 -11.990118 120.22373 0
-2.0652831 4.9149423 0.38437212 250 0 0 0.86735082 -10.214172 114.60211 0
-2.117717 4.9661078 0.40377581 250 0 0 2.8490586 -9.2831383 114.65823 0
-2.1776752 5.0736303 0.37759659 250 0 0 3.1875713 -9.7855835 115.98746 0
-2.3044455 5.2459416 0.3730011 250 0 0 2.3351934 -11.04233 121.72414 0
-2.3473446 5.2897511 0.39810666 250 0 0 2.4923849 -11.266184 123.63228 0
-2.3877823 5.3996544 0.37111619 250 0 0 -0.1822715 -10.97814 123.33583 0
-2.4811559 5.547802 0.39148888 250 0 0 0.68771225 -11.514284 123.70483 0
-2.5106337 5.5965967 0.36717609 250 0 0 0.84508049 -11.408214 122.61601 0
-2.5633347 5.7305126 0.37135911 250 0 0 0.33863026 -11.444372 120.70381 0
-2.6851797 5.8147874 0.40267113 250 0 0 1.1865758 -9.9753017 116.91816 0
-2.783179 5.946115 0.39124057 250 0 0 2.2421191 -10.520716 120.8278 0
-2.8149083 6.023715 0.40263167 250 0 0 2.0038459 -10.909366 122.75773 0
-2.8706706 6.1427851 0.3955099 250 0 0 1.1879915 -12.425308 124.93777 0
-2.9582653 6.2982788 0.41249919 250 0 0 -0.76254159 -12.931388 124.43073 0
-2.9572361 6.3389664 0.41971502 250 0 0 0.6518113 -11.671391 124.12016 0
-3.0187173 6.4992361 0.42031208 250 0 0 0.96616018 -13.03112 123.6149 0
-3.1130548 6.6579976 0.41516665 250 0 0 0.44038144 -12.364468 120.93877 0
-3.2085624 6.7398734 0.4369404 250 0 0 1.019011 -11.826989 118.5612 0
-3.2463901 6.7924709 0.45160794 250 0 0 2.4033182 -11.329351 118.89762 0
-3.2959404 6.8699989 0.43463904 250 0 0 2.2901814 -10.711136 120.78594 0
-3.4139175 7.0045552 0.43043515 250 0 0 1.4666364 -12.617128 129.37802 0
-3.4496217 7.0655055 0.44087088 250 0 0 -0.55083233 -11.54689 132.08392 0
-3.5180459 7.1854916 0.45232698 250 0 0 -2.4373429 -11.483073 137.25603 0
-3.6687806 7.324019 0.46709779 250 0 0 -2.6910281 -10.294441 141.711 0
-3.7050867 7.3582349 0.45497373 250 0 0 -3.0983853 -11.232382 142.85405 0
-3.7991881 7.4348998 0.44927725 250 0 0 -3.1301916 -11.306566 144.7459 0
-3.9279592 7.5714397 0.45663482 250 0 0 -4.8711147 -12.241033 147.35376 0
-4.0826068 7.6485023 0.46813291 250 0 0 -1.2258408 -10.395447 148.59189 0
-4.1267657 7.6530719 0.45086184 250 0 0 -1.440874 -9.9452696 150.22299 0
-4.2873898 7.7231636 0.46238223 250 0 0 -1.5360123 -10.123801 156.6602 0
-4.4457641 7.8009439 0.44857016 250 0 0 -3.1082313 -8.9326429 164.75548 0
-4.5250235 7.8307724 0.45552906 250 0 0 -4.8300576 -9.4765558 166.1833 0
-4.6305695 7.8468051 0.45504993 250 0 0 -3.0016596 -7.9234695 169.97098 0
-4.8154521 7.9324965 0.42893475 250 0 0 -2.5483594 -8.5037947 170.96677 0
-4.9943008 7.9997025 0.4205251 250 0 0 -4.6577482 -9.282361 171.61731 0
-5.043973 7.9716458 0.42532137 250 0 0 -3.953114 -7.7225094 171.02011 0
-5.1754498 8.0054617 0.43193758 250 0 0 -1.928835 -7.2068672 174.09209 0
-5.3945012 7.9854145 0.41522014 250 0 0 -1.8041466 -7.7668772 -177.52217 0
-5.4547901 8.0038719 0.39380956 250 0 0 -3.3244336 -7.1608686 -174.47946 0
-5.6031694 8.0292845 0.40816215 250 0 0 -4.9190979 -5.4224319 -169.86499 0
-5.8043027 8.0129833 0.42277947 250 0 0 -3.304508 -4.5475945 -165.10062 0
-5.8459253 7.9976215 0.40315667 250 0 0 -3.8871162 -5.8856368 -164.68079 0
-5.9531264 7.9762559 0.39274672 250 0 0 -3.0342565 -5.3730211 -165.52281 0
-5.9982867 7.8805342 0.38876271 250 0 0 -4.3615332 -5.5513153 -167.05989 0
-6.2054653 7.8520393 0.40847808 250 0 0 -1.5299939 -5.8457689 -164.97649 0
-6.2736735 7.8277659 0.39739212 250 0 0 -1.9338377 -6.8848734 -163.49022 0
-6.4122858 7.7842178 0.38243124 250 0 0 -3.7012796 -9.1682501 -160.7101 0
-6.5276098 7.6962299 0.38147533 250 0 0 -4.5012536 -6.84654 -157.44432 0
-6.5826025 7.678153 0.38793641 250 0 0 -3.0293276 -4.5594301 -155.77579 0
-6.7227902 7.6463318 0.39094156 250 0 0 -2.4543242 -6.6962891 -154.28511 0
-6.9066725 7.5852675 0.40371063 250 0 0 -3.7054963 -3.0872591 -157.55511 0
-6.9625897 7.5634198 0.42899832 250 0 0 -3.6520288 -3.7154446 -158.44432 0
-7.0322862 7.5049405 0.42825586 250 0 0 -2.8136375 -1.9721283 -160.21506 0
-7.1667686 7.4251361 0.43123168 250 0 0 -1.4793118 -2.5758541 -158.08653 0
-7.3129911 7.343245 0.44336009 250 0 0 -2.8778157 -4.8977032 -154.06839 0
-7.3584752 7.3227735 0.44838417 250 0 0 -2.1699085 -4.7807512 -152.33989 0
-7.4384775 7.283896 0.44920298 250 0 0 -4.1345315 -4.8577337 -153.10413 0
-7.5986257 7.2484484 0.45365268 250 0 0 -3.5075781 -4.4051576 -152.94191 0
-7.6284232 7.1961102 0.42629376 250 0 0 -3.6171134 -4.7397566 -153.8754 0
-7.7522106 7.1370387 0.42565018 250 0 0 -2.8584683 -6.5291934 -154.15338 0
-7.898252 7.0477829 0.38616791 250 0 0 -3.0063932 -6.236187 -156.59012 0
-8.0504227 6.9421878 0.37787765 250 0 0 -1.5298694 -5.8758764 -154.52386 0
-8.1227512 6.9241114 0.37456456 250 0 0 -1.5073571 -6.100914 -153.80432 0
-8.2380877 6.8590045 0.37219191 250 0 0 -1.5356747 -5.8292098 -151.73631 0
-8.4095688 6.798182 0.37985194 250 0 0 -2.5751054 -4.9681373 -152.51244 0
-8.4538631 6.7620296 0.38422486 250 0 0 -1.2621331 -3.7119441 -152.07906 0
-8.5643139 6.7261353 0.3814874 250 0 0 -1.939859 -4.6846557 -151.06516 0
-8.7163906 6.6347666 0.36313921 250 0 0 -2.2280974 -3.9949791 -152.8434 0
-8.7555952 6.6003509 0.35796696 250 0 0 -3.0738926 -3.5322313 -153.73132 0
-8.850069 6.5352216 0.37284073 250 0 0 -2.7118418 -2.625277 -155.72676 0
-8.9867229 6.4330964 0.37581095 250 0 0 -0.70435774 -2.6165555 -155.39261 0
-9.1390638 6.322475 0.35844889 250 0 0 -0.13639118 -4.5738468 -150.84518 0
-9.2119646 6.2837825 0.37669155 250 0 0 -0.75912285 -4.7685905 -148.56207 0
-9.3369989 6.2323084 0.36312324 250 0 0 -2.4420772 -5.6831346 -146.90871 0
-9.4971437 6.1398058 0.3749527 250 0 0 -1.1844606 -4.8219023 -146.68158 0
-9.5469131 6.1159301 0.35103768 250 0 0 -1.1905409 -5.403882 -146.96231 0
-9.6497278 6.0459704 0.34275377 250 0 0 -0.59476477 -5.0221829 -147.38525 0
-9.8058443 5.9303837 0.35613763 250 0 0 -1.9488277 -5.2446084 -147.37889 0
-9.926424 5.7998095 0.35020521 250 0 0 -0.20954929 -5.4661913 -145.96556 0
-9.9589148 5.7476344 0.33389392 250 0 0 -0.43587452 -4.8163147 -144.93674 0
-10.05019 5.6382189 0.33377883 250 0 0 -0.85207194 -5.0196242 -139.46298 0
-10.16912 5.4726338 0.30958125 250 0 0 -2.2847695 -4.3422837 -131.15102 0
-10.232285 5.4368672 0.3160814 250 0 0 -2.8378055 -4.118423 -127.95295 0
-10.281994 5.3226924 0.31856251 250 0 0 -1.5922179 -3.1117196 -124.32304 0
-10.405312 5.1576133 0.30476546 250 0 0 -2.1603994 -6.0201402 -120.10349 0
-10.494429 4.985568 0.29732072 250 0 0 -3.8112428 -6.0513082 -119.48148 0
-10.522882 4.9376502 0.29160023 250 0 0 -3.4333701 -5.4985585 -120.29887 0
-10.549115 4.8135529 0.31046259 250 0 0 -1.4593589 -4.7357965 -119.69775 0
-10.603863 4.6393356 0.26868621 250 0 0 -0.54928541 -5.1036572 -115.19759 0
-10.616602 4.5807958 0.25266278 250 0 0 0.13022254 -4.7249508 -112.62656 0
-10.644997 4.4532723 0.257386 250 0 0 0.16974014 -2.7321 -107.62074 0
-10.69718 4.2722182 0.27169165 250 0 0 0.10683753 -2.6484363 -100.12618 0
-10.747975 4.0856519 0.25358427 250 0 0 0.77187592 -3.3901966 -96.984222 0
-10.763293 4.0218101 0.23706813 250 0 0 0.61999911 -3.1628716 -97.142738 0
-10.783805 3.8879757 0.23467006 250 0 0 -2.3799314 -3.0026219 -97.051575 0
-10.821925 3.6987495 0.25278392 250 0 0 -1.7087582 -2.8259563 -98.906456 0
-10.822046 3.6386917 0.24459444 250 0 0 -0.64994788 -2.6845207 -99.083008 0
-10.832002 3.512279 0.22873142 250 0 0 1.5418143 -2.2189538 -97.227791 0
-10.870085 3.3124869 0.19125068 250 0 0 0.90293849 -2.1528711 -92.588631 0
-10.877764 3.2412992 0.20089152 250 0 0 1.3005391 -1.5110865 -90.705048 0
-10.93137 3.1148577 0.20809838 250 0 0 -0.70807105 -2.2720716 -87.863113 0
-10.951239 2.9312587 0.21503361 250 0 0 1.6239389 -2.9609504 -86.603203 0
-10.970002 2.7463982 0.17732799 250 0 0 0.088309474 -2.5204709 -89.420868 0
-10.959819 2.6829453 0.18283868 250 0 0 -1.4124978 -3.3884697 -89.933701 0
-11.011258 2.5703053 0.1678721 250 0 0 -2.5049789 -4.0894074 -92.629066 0
-10.972466 2.387229 0.18310574 250 0 0 -0.94942641 -3.2531946 -94.18364 0
-10.968164 2.3276124 0.17337586 250 0 0 -0.6145497 -3.7770317 -93.180626 0
-10.989697 2.2052209 0.15145397 250 0 0 0.66034096 -4.3037596 -92.607353 0
-11.016658 2.0190272 0.14972055 250 0 0 0.98108172 -2.3658259 -90.219429 0
-11.026714 1.9637543 0.15060377 250 0 0 -0.18197899 -1.7530471 -91.839088 0
-11.03343 1.8345239 0.17533633 250 0 0 1.433688 -0.79963738 -93.400017 0
-11.082388 1.6351683 0.13357858 250 0 0 -0.60282069 -2.9690073 -96.582947 0
-11.102012 1.4330558 0.15812723 250 0 0 -4.1332569 -1.1407125 -101.34152 0
-11.124003 1.3693937 0.19908315 250 0 0 -4.5837517 -1.8252324 -103.05696 0
-11.137897 1.2660277 0.19616036 250 0 0 -3.656883 -1.2364604 -106.41319 0
-11.171042 1.0852319 0.18773898 250 0 0 -0.051810998 -1.5478082 -106.79591 0
-11.214853 1.0223846 0.18343689 250 0 0 0.2222891 -1.9922818 -106.34171 0
-11.254284 0.89211023 0.17584436 250 0 0 -1.6273412 -3.091748 -106.73824 0
-11.317623 0.71502107 0.19467485 250 0 0 -3.0683091 -3.6058846 -105.26105 0
-11.360332 0.52616882 0.17537208 250 0 0 -1.4770666 -3.4656351 -104.13543 0
-11.386061 0.4620946 0.16195537 250 0 0 -1.83907 -3.6021874 -105.4587 0
-11.416736 0.32840908 0.15552394 250 0 0 -2.9223919 -5.3946161 -109.02645 0
-11.432728 0.13400389 0.15118882 250 0 0 -1.2179848 -3.3650947 -114.92377 0
-11.458836 0.07467147 0.1513368 250 0 0 -0.33593196 -2.74809 -115.31253 0
-11.468925 -0.058509927 0.11541519 250 0 0 -0.63961273 -2.1262488 -114.99252 0
-11.52303 -0.27765867 0.097168714 250 0 0 -2.0106337 -3.108541 -112.0201 0
-11.511537 -0.35127676 0.10183173 250 0 0 -0.90024352 -2.179107 -109.47231 0
-11.561052 -0.47912773 0.11131342 250 0 0 -1.2995005 -2.2535415 -104.9136 0
-11.613177 -0.68109608 0.098821819 250 0 0 1.7105135 -1.7346038 -102.92446 0
-11.642735 -0.8839882 0.049888797 250 0 0 -1.8019453 -1.5442002 -107.30145 0
-11.669245 -0.95164633 0.064597309 250 0 0 -1.9113666 -0.74596226 -108.14555 0
-11.669903 -1.079427 0.071421795 250 0 0 -1.1269599 -0.76905137 -111.77763 0
-11.691543 -1.2729527 0.02871142 250 0 0 0.3185876 -0.70018685 -111.23907 0
-11.703808 -1.3496573 0.028881073 250 0 0 -0.20387915 -0.75908136 -110.15828 0
-11.722962 -1.4966829 0.019027585 250 0 0 -0.8385278 -1.4455442 -108.32005 0
-11.759818 -1.698114 0.03514529 250 0 0 -1.4680045 -2.911742 -103.4915 0
-11.805074 -1.891569 0.014496325 250 0 0 -0.48495421 -2.2238359 -102.66325 0
-11.816545 -1.9543263 -0.013221921 250 0 0 -0.65633088 -2.1101532 -102.97429 0
-11.849095 -2.0814636 -0.042484362 250 0 0 -3.3599808 -1.4281574 -105.9587 0
-11.891545 -2.2674394 -0.044553675 250 0 0 -3.3468602 0.13629895 -112.67694 0
-11.898571 -2.3312836 -0.047152624 250 0 0 -1.943324 0.4269774 -113.71967 0
-11.923029 -2.4546137 -0.095044158 250 0 0 -1.8088495 1.6383733 -114.99966 0
-11.968071 -2.682795 -0.10828403 250 0 0 -2.7890944 0.63557202 -111.45865 0
-12.034129 -2.8755593 -0.083747253 250 0 0 -1.7061863 -0.30530217 -107.25589 0
-12.032655 -2.9318748 -0.09179531 250 0 0 -0.22557153 -0.1160229 -106.82803 0
-12.08821 -3.0519433 -0.096843153 250 0 0 0.23064595 -0.36526698 -105.48462 0
-12.157972 -3.2410295 -0.15661503 250 0 0 -3.3747666 -1.1168009 -108.61926 0
-12.13828 -3.3249879 -0.1545931 250 0 0 -3.8160782 -1.3121841 -110.65759 0
-12.206209 -3.4431009 -0.14838776 250 0 0 -3.6903183 -2.0318053 -115.21054 0
-12.247244 -3.6346593 -0.15746279 250 0 0 0.12591209 -2.2022011 -115.96738 0
-12.255697 -3.7016542 -0.17872517 250 0 0 0.73945534 -2.1915123 -114.97878 0
-12.331944 -3.8345194 -0.22674467 250 0 0 1.53442 -2.5249219 -111.78064 0
-12.407354 -4.0435185 -0.19676368 250 0 0 -0.90903956 -2.0428951 -107.06358 0
-12.48061 -4.2035112 -0.20005862 250 0 0 1.49438 -2.9333026 -104.3498 0
-12.515408 -4.2569008 -0.22768284 250 0 0 0.92089516 -2.9300432 -105.11305 0
-12.573817 -4.3808818 -0.24609616 250 0 0 -1.4055499 -0.79396558 -108.254 0
-12.636797 -4.5634937 -0.22909801 250 0 0 -2.901186 -2.1290579 -111.88805 0
-12.637622 -4.6219697 -0.22873209 250 0 0 -3.1839502 -1.4011941 -113.26633 0
-12.669182 -4.7341576 -0.22639129 250 0 0 -1.1447648 -1.2823856 -112.83223 0
-12.74226 -4.895689 -0.25695923 250 0 0 -0.84171069 -1.038831 -110.05106 0
-12.796825 -4.9399428 -0.2779085 250 0 0 -1.2842034 -1.6774523 -108.75158 0
-12.8517 -5.0401912 -0.27420247 250 0 0 -1.4608064 -1.4437745 -107.01479 0
-12.952833 -5.165904 -0.24859814 250 0 0 -1.4122086 -1.9420706 -107.45319 0
-13.06202 -5.277009 -0.28361511 250 0 0 -1.7259469 -1.6191772 -110.00979 0
-13.089629 -5.3258801 -0.2871539 250 0 0 -2.2539303 -1.0068643 -111.69044 0
-13.132048 -5.4269338 -0.30392823 250 0 0 -3.1594403 -0.76648778 -113.5071 0
-13.207705 -5.5834608 -0.27284738 250 0 0 -3.6028116 -1.2483972 -118.13224 0
-13.223949 -5.6209249 -0.27558151 250 0 0 -2.0415342 -2.0641437 -117.94875 0
-13.249371 -5.6974268 -0.3011196 250 0 0 -1.3903661 -1.6245826 -118.14302 0
-13.308956 -5.8535447 -0.32101238 250 0 0 -0.77254152 -0.39512187 -114.24129 0
-13.369538 -6.0148144 -0.32300201 250 0 0 -0.89092308 -1.8005862 -109.36703 0
-13.42029 -6.0629129 -0.31788918 250 0 0 -0.82852226 -2.172857 -107.17495 0
-13.45685 -6.1551008 -0.32189938 250 0 0 0.15585057 -2.5049386 -106.01669 0
-13.53231 -6.3041296 -0.36689675 250 0 0 -0.64286321 -1.4239024 -105.82402 0
-13.556921 -6.3665228 -0.37583682 250 0 0 -1.1692678 -1.1952195 -106.30544 0
-13.603767 -6.4813352 -0.39696103 250 0 0 -4.6010838 -2.6964676 -108.78777 0
-13.644157 -6.6538086 -0.38356337 250 0 0 -3.3145831 -2.3792336 -112.56644 0
-13.656483 -6.7066755 -0.3881073 250 0 0 -2.2515247 -1.4610707 -112.85133 0
-13.703245 -6.8196507 -0.41264349 250 0 0 -1.4197187 -1.5270332 -113.23261 0
-13.7691 -7.0224848 -0.43906009 250 0 0 -1.5270275 -3.8549087 -110.48689 0
-13.891694 -7.2075577 -0.42619631 250 0 0 -3.3784962 -6.0529199 -105.25005 0
-13.905879 -7.2571697 -0.42295641 250 0 0 -3.2616148 -6.3616433 -105.94376 0
-13.945934 -7.3733549 -0.42466831 250 0 0 -1.6652821 -6.2689581 -104.8569 0
-14.032872 -7.5355134 -0.49171355 250 0 0 -3.1210856 -5.3075986 -107.32677 0
-14.042401 -7.6049294 -0.49541414 250 0 0 -4.7811332 -4.8024201 -108.64748 0
-14.106292 -7.7318268 -0.47033021 250 0 0 -4.5096884 -5.4529152 -109.8529 0
-14.151811 -7.9005771 -0.48172244 250 0 0 -1.411894 -4.7907877 -114.24552 0
-14.192013 -8.0854044 -0.52908063 250 0 0 -1.2434403 -4.5195451 -112.41811 0
-14.212953 -8.1416197 -0.55235177 250 0 0 -1.1152239 -5.4194956 -110.97419 0
-14.245083 -8.2579975 -0.56553555 250 0 0 -1.183069 -4.4252348 -108.43056 0
-14.317943 -8.4110193 -0.57592702 250 0 0 -1.7578605 -1.8246042 -107.67898 0
-14.337606 -8.4859047 -0.55435085 250 0 0 -0.58357018 -1.1395901 -106.6466 0
-14.391578 -8.6009865 -0.59766459 250 0 0 -1.4297297 -3.8448761 -106.42153 0
-14.427246 -8.7886715 -0.63166469 250 0 0 -3.6240735 -2.5117474 -108.80947 0
-14.455477 -8.8487368 -0.62370801 250 0 0 -2.8524446 -1.7613243 -109.50913 0
-14.491514 -8.9678059 -0.62418228 250 0 0 -1.2394552 -1.9418975 -112.09496 0
-14.545507 -9.1522303 -0.66280502 250 0 0 -0.24886568 -1.3210788 -111.55781 0
-14.589551 -9.3322372 -0.68453878 250 0 0 -1.7460366 -1.8105589 -111.0409 0
-14.606312 -9.3920078 -0.68230385 250 0 0 -1.5105945 -0.95666981 -107.8448 0
-14.656702 -9.5139818 -0.67936873 250 0 0 -3.0133762 -0.94124067 -106.52287 0
-14.715487 -9.7112093 -0.70372403 250 0 0 -1.2561189 -1.4162796 -103.64745 0
-14.746115 -9.7715712 -0.73080713 250 0 0 -2.1945701 -1.7669363 -104.94133 0
-14.752049 -9.9059839 -0.73927534 250 0 0 -4.1367226 0.13436507 -108.22356 0
-14.806565 -10.092797 -0.72845161 250 0 0 -2.7533324 0.057043552 -112.25449 0
-14.856759 -10.28669 -0.75359905 250 0 0 -1.9450769 -0.057889834 -112.05829 0
-14.885281 -10.349911 -0.77039278 250 0 0 -1.9249362 -1.3186556 -111.05438 0
-14.91115 -10.484503 -0.76642191 250 0 0 -2.2911639 -0.12441363 -110.07812 0
-14.980992 -10.666112 -0.75619757 250 0 0 -1.7650274 -1.2710327 -107.80675 0
-15.004981 -10.737369 -0.74951917 250 0 0 -1.1713426 -1.2191923 -106.93209 0
-15.051225 -10.855391 -0.80200267 250 0 0 -1.8103888 -2.9580569 -106.12821 0
-15.102186 -11.063069 -0.81542802 250 0 0 -3.176888 -0.5324403 -110.44036 0
-15.140124 -11.123736 -0.81622881 250 0 0 -3.3095326 -0.46975884 -111.22218 0
-15.16242 -11.242078 -0.81581223 250 0 0 -2.8426075 0.069946364 -113.71853 0
-15.207478 -11.461477 -0.84132731 250 0 0 -2.6559381 -0.80427676 -110.32045 0
-15.238325 -11.650187 -0.86431634 250 0 0 -3.2257802 -1.1428969 -100.54751 0
-15.268242 -11.742444 -0.86624885 250 0 0 -5.1320477 -1.3339685 -97.344772 0
-15.278542 -11.856774 -0.87941223 250 0 0 -3.9527791 0.61900866 -94.481216 0
-15.315188 -12.071889 -0.93922704 250 0 0 -4.3048201 -0.6712116 -91.479256 0
-15.314957 -12.145761 -0.93851775 250 0 0 -4.5608559 -0.45434892 -91.780838 0
-15.300062 -12.274445 -0.93850219 250 0 0 -4.1488538 -0.40274775 -90.372765 0
-15.276225 -12.46416 -0.92547822 250 0 0 -1.4487671 -0.41343004 -87.777023 0
-15.278904 -12.532407 -0.94318992 250 0 0 -0.87134069 -1.0159535 -86.448486 0
-15.245395 -12.692403 -0.9736259 250 0 0 1.0017865 -0.74056864 -83.31395 0
-15.178394 -12.882358 -0.99754637 250 0 0 1.8692038 -2.4568207 -73.834053 0
-15.145523 -13.072609 -1.0166091 250 0 0 0.15436763 0.073446162 -69.394112 0
-15.144231 -13.218918 -1.0173602 250 0 0 2.0424802 0.55485499 -66.561745 0
-15.115336 -13.354931 -1.0665712 250 0 0 1.2070268 -1.8206992 -64.43557 0
-15.046032 -13.5657 -1.0843168 250 0 0 0.6383568 -1.7806937 -65.607338 0
-15.044571 -13.636888 -1.0914541 250 0 0 -0.18779045 -1.9840763 -66.672501 0
-14.965267 -13.748399 -1.0799173 250 0 0 1.6659803 -0.73952597 -67.742439 0
-14.881628 -13.938653 -1.1500597 250 0 0 2.6908147 -0.76639837 -64.841133 0
-14.792371 -14.145477 -1.1771675 250 0 0 0.63532442 -2.0703101 -60.598095 0
-14.804481 -14.239048 -1.1872076 250 0 0 -0.03523628 -1.7235591 -58.014313 0
-14.736259 -14.355687 -1.1731132 250 0 0 1.3832105 -1.0484269 -57.606922 0
-14.66921 -14.583036 -1.2330805 250 0 0 2.6832213 -2.7325637 -57.527363 0
-14.640306 -14.660673 -1.2374265 250 0 0 2.2203212 -2.4464762 -59.359482 0
-14.55558 -14.775205 -1.2362032 250 0 0 2.6111567 -2.3309884 -61.275463 0
-14.466229 -14.953046 -1.2452555 250 0 0 3.8090982 -0.93455344 -64.537224 0
-14.354002 -15.139923 -1.2709454 250 0 0 5.5969534 -0.05841428 -62.912457 0
-14.318339 -15.199074 -1.2917484 250 0 0 6.1577015 -1.1974809 -61.518539 0
-14.254212 -15.356332 -1.3025813 250 0 0 6.1043711 -1.4264179 -58.338623 0
-14.154041 -15.533624 -1.3083047 250 0 0 5.535852 0.45960349 -58.097351 0
-14.124831 -15.596951 -1.3164731 250 0 0 5.4507127 0.04243869 -57.009048 0
-14.078155 -15.730507 -1.3764769 250 0 0 4.4516487 0.84098977 -58.179672 0
-13.945025 -15.929179 -1.365433 250 0 0 1.3485804 1.221508 -61.025928 0
-13.92791 -16.001686 -1.360721 250 0 0 0.37676078 -0.35788441 -62.411404 0
-13.848566 -16.0905 -1.383886 250 0 0 2.9992213 1.1579551 -64.061104 0
-13.734693 -16.290594 -1.3999312 250 0 0 4.4806333 3.0817158 -61.822933 0
-13.618864 -16.481041 -1.4287152 250 0 0 3.8104277 0.21154331 -58.423244 0
-13.619064 -16.578232 -1.4309325 250 0 0 2.7282138 -0.057595205 -56.990891 0
-13.535324 -16.659979 -1.4192702 250 0 0 3.1522651 0.13131256 -56.639778 0
-13.463169 -16.861332 -1.4928499 250 0 0 3.1046612 -0.93583959 -55.336563 0
-13.434092 -16.935776 -1.5079803 250 0 0 1.7404847 -0.23241207 -57.003372 0
-13.359457 -17.065817 -1.5179518 250 0 0 -0.97262955 0.23727022 -61.189411 0
-13.252047 -17.229485 -1.512886 250 0 0 1.2638122 2.0282357 -65.159554 0
-13.122493 -17.411333 -1.5476483 250 0 0 2.5048807 1.6667581 -63.578033 0
-13.077541 -17.482521 -1.551553 250 0 0 3.3490787 0.41499093 -62.147778 0
-13.0001 -17.603857 -1.5770442 250 0 0 3.3673401 -0.32624552 -59.296528 0
-12.898558 -17.801149 -1.5883669 250 0 0 1.7465357 0.30908653 -57.200367 0
-12.853977 -17.865391 -1.5862819 250 0 0 2.7574575 0.23438682 -56.598698 0
-12.783449 -17.994282 -1.6276202 250 0 0 2.1379304 -1.7042172 -55.827671 0
-12.663334 -18.16432 -1.6768084 250 0 0 0.6720137 -0.86548209 -59.002117 0
-12.645581 -18.236504 -1.6808312 250 0 0 0.093781002 -0.11866861 -60.811039 0
-12.529284 -18.331638 -1.6713736 250 0 0 2.1605561 1.0992417 -63.183178 0
-12.399391 -18.505947 -1.7036601 250 0 0 4.6751528 -1.1461436 -61.611641 0
-12.289751 -18.714539 -1.7243123 250 0 0 2.9728627 -2.0108876 -58.988968 0
-12.277164 -18.808811 -1.7194366 250 0 0 1.5124345 -2.1736395 -57.839184 0
-12.197013 -18.908346 -1.7217982 250 0 0 1.9527519 -1.9345037 -58.551296 0
-12.110629 -19.111116 -1.787131 250 0 0 1.4191798 -1.4237746 -59.160347 0
-12.076368 -19.177429 -1.8050919 250 0 0 0.31553769 -0.67719138 -60.345791 0
-11.978899 -19.291059 -1.7989987 250 0 0 0.022126252 1.3286517 -63.108757 0
-11.869682 -19.465366 -1.7975236 250 0 0 2.1377676 0.1347314 -65.068367 0
-11.753596 -19.660604 -1.8308848 250 0 0 3.632086 -0.54890466 -63.267345 0
-11.726971 -19.724461 -1.8650614 250 0 0 3.7149882 -2.0440111 -62.422039 0
-11.638166 -19.849077 -1.8766121 250 0 0 3.8905406 -0.78924131 -60.645054 0
-11.538052 -20.03303 -1.8679969 250 0 0 3.3475506 -0.65120399 -57.30267 0
-11.510882 -20.094408 -1.8808471 250 0 0 3.7034383 -0.90477782 -56.382511 0
-11.45189 -20.213894 -1.9278286 250 0 0 2.3524206 -1.2567079 -57.025124 0
-11.341652 -20.402073 -1.9622073 250 0 0 0.61330026 -1.9288387 -61.135292 0
-11.298635 -20.45187 -1.9628211 250 0 0 0.91761464 -1.1438134 -62.964745 0
-11.205946 -20.554804 -1.9543428 250 0 0 3.4786699 0.064966202 -63.891258 0
-11.093424 -20.74411 -2.0077832 250 0 0 4.8509626 0.43365774 -62.49007 0
-10.973002 -20.94099 -2.0174594 250 0 0 5.3429728 -0.4222329 -60.515984 0
-10.973934 -21.030966 -2.0151973 250 0 0 3.5471008 -0.73402417 -59.557388 0
-10.89317 -21.132822 -2.0361814 250 0 0 4.0577912 1.201436 -61.206909 0
-10.790899 -21.30813 -2.1010282 250 0 0 2.1535664 0.85390365 -63.290779 0
-10.744897 -21.372417 -2.109323 250 0 0 2.4160125 1.2356386 -64.215652 0
-10.66204 -21.489361 -2.1219997 250 0 0 0.66454607 0.80350059 -66.599236 0
-10.517999 -21.642962 -2.1238282 250 0 0 2.4577339 2.6281681 -67.528618 0
-10.480561 -21.697542 -2.14183 250 0 0 3.1677442 2.4787772 -66.529778 0
-10.375401 -21.811789 -2.1728153 250 0 0 3.9820473 2.3467708 -63.057655 0
-10.235578 -21.994938 -2.2116289 250 0 0 2.379832 1.4487469 -54.143196 0
-10.067759 -22.150566 -2.2157838 250 0 0 2.0944209 2.4465175 -47.130642 0
-10.016614 -22.217016 -2.2206533 250 0 0 1.9996163 1.2909244 -43.565426 0
-9.9310446 -22.344139 -2.2765214 250 0 0 1.5411745 -0.78053933 -39.995968 0
-9.7478628 -22.500439 -2.2671041 250 0 0 0.15733577 0.35763288 -41.078552 0
-9.6849442 -22.527792 -2.2752738 250 0 0 1.2107309 0.65750742 -41.632133 0
-9.5553617 -22.608438 -2.2677927 250 0 0 3.9893043 0.31662428 -39.296196 0
-9.3542309 -22.720907 -2.3126233 250 0 0 5.6088943 -1.311321 -32.101719 0
-9.1416111 -22.831818 -2.2957649 250 0 0 4.0217323 -1.7671005 -20.280655 0
-9.0673571 -22.848482 -2.2887907 250 0 0 2.4665897 -2.9445612 -17.729671 0
-8.9350138 -22.89716 -2.2948494 250 0 0 5.3596592 -2.4672859 -11.471722 0
-8.7168617 -22.976826 -2.3585796 250 0 0 4.8440619 -2.7725065 -7.5073767 0
-8.6380682 -22.98163 -2.3440924 250 0 0 3.7104208 -1.7974344 -7.2098937 0
-8.4974442 -23.019701 -2.3439157 250 0 0 3.1656315 -1.3086082 -5.8226209 0
-8.2831249 -23.046907 -2.3398547 250 0 0 4.7800827 -1.7276316 -3.0025535 0
-8.2102737 -23.051991 -2.3561623 250 0 0 5.3512721 -1.8154501 -1.428448 0
-8.0542393 -23.061398 -2.3604467 250 0 0 5.7907209 -3.8417499 3.0134654 0
-7.8122387 -23.096651 -2.3514543 250 0 0 4.1900401 -5.1369419 9.1990871 0
-7.5957308 -23.092266 -2.33305 250 0 0 6.1848087 -5.8158793 13.102528 0
-7.5241818 -23.089386 -2.3552349 250 0 0 6.6212101 -7.0021462 13.859596 0
-7.3823133 -23.077967 -2.3852649 250 0 0 5.1090407 -5.645473 13.831634 0
-7.1664586 -23.058708 -2.3720846 250 0 0 3.2268331 -3.0553529 13.348299 0
-7.093225 -23.042994 -2.3516805 250 0 0 4.0214353 -2.3266363 13.353753 0
-6.9566164 -23.008245 -2.3728759 250 0 0 5.031631 -3.9897113 14.969447 0
-6.7200599 -22.973026 -2.3821135 250 0 0 5.8462205 -6.6001234 20.046017 0
-6.4963164 -22.941238 -2.3522696 250 0 0 4.2211199 -7.2644172 24.000694 0
-6.4441257 -22.909138 -2.3462012 250 0 0 4.8484411 -6.5680747 24.658142 0
-6.3018122 -22.876436 -2.3315213 250 0 0 5.3064337 -8.0458174 26.799717 0
-6.0958281 -22.795078 -2.3679855 250 0 0 4.676404 -7.5585032 24.747326 0
-6.0390272 -22.75948 -2.3545589 250 0 0 4.6200004 -7.4979944 24.864017 0
-5.9013739 -22.726057 -2.3650875 250 0 0 5.0727315 -7.2447438 22.726208 0
-5.7125735 -22.635744 -2.3511925 250 0 0 8.6182699 -5.2485094 22.580206 0
-5.6497812 -22.59614 -2.3585796 250 0 0 8.7669287 -5.5915051 24.028534 0
-5.5049663 -22.536634 -2.3777883 250 0 0 7.7781501 -7.2593741 27.207886 0
-5.2716832 -22.453363 -2.3480005 250 0 0 5.6163721 -5.2107186 31.525003 0
-5.0797105 -22.334578 -2.3349257 250 0 0 6.3001385 -7.0100579 32.697723 0
-5.0145292 -22.294283 -2.3561795 250 0 0 6.4391799 -7.8846307 32.927704 0
-4.877995 -22.213043 -2.3724 250 0 0 5.3522286 -7.4354205 30.811811 0
-4.7042313 -22.10326 -2.3593144 250 0 0 5.2376232 -4.8640599 27.261148 0
-4.6503325 -22.064482 -2.3473232 250 0 0 7.0955181 -3.7891173 27.273996 0
-4.5248008 -21.999165 -2.3605196 250 0 0 8.1778584 -4.0247784 27.638628 0
-4.3010879 -21.898752 -2.3737786 250 0 0 7.7119145 -4.9998937 28.375315 0
-4.0832648 -21.810713 -2.330092 250 0 0 4.9824543 -6.71805 29.72921 0
-4.0329881 -21.768026 -2.3271644 250 0 0 5.9677701 -6.2523642 30.161369 0
-3.8969698 -21.706665 -2.339246 250 0 0 6.2329345 -7.0858507 31.262196 0
-3.6908638 -21.584736 -2.3680105 250 0 0 4.6538796 -3.8880308 29.019716 0
-3.6108491 -21.552731 -2.3483822 250 0 0 4.770153 -3.5684619 28.328516 0
-3.4963603 -21.455088 -2.3254719 250 0 0 6.2067671 -2.7042663 24.606001 0
-3.2880356 -21.361074 -2.3411269 250 0 0 9.3870401 -4.405961 24.910736 0
-3.0841842 -21.230417 -2.3382013 250 0 0 8.3519802 -3.6840315 26.867294 0
-3.0048935 -21.200434 -2.3219533 250 0 0 8.5516386 -4.0311069 29.884811 0
-2.860023 -21.134586 -2.2888689 250 0 0 5.3190913 -6.8518982 31.146921 0
-2.649574 -21.018166 -2.3085973 250 0 0 5.8511972 -8.6071787 32.277191 0
-2.5722494 -20.986511 -2.3407016 250 0 0 5.142818 -7.9418068 30.410847 0
-2.4550507 -20.870985 -2.317271 250 0 0 5.2525353 -5.5915322 27.749964 0
-2.271975 -20.749157 -2.2702754 250 0 0 5.8975849 -5.6246996 26.239632 0
-2.2038474 -20.713913 -2.2654786 250 0 0 7.4487185 -6.2369537 25.876961 0
-2.0769904 -20.624678 -2.2921166 250 0 0 8.6447153 -6.6501427 26.081688 0
-1.8715732 -20.503506 -2.2926965 250 0 0 8.7489252 -8.2088442 30.491001 0
-1.6725045 -20.359159 -2.2288365 250 0 0 6.5352216 -9.2575531 34.035065 0
-1.5941912 -20.319262 -2.2183177 250 0 0 6.9909258 -10.96502 35.785767 0
-1.4429125 -20.239799 -2.2937057 250 0 0 5.8401427 -12.158009 34.758808 0
-1.2585249 -20.104321 -2.2790039 250 0 0 5.9650683 -10.19201 29.574564 0
-1.206036 -20.057596 -2.260834 250 0 0 6.8738165 -8.9911366 28.581059 0
-1.0768903 -19.992546 -2.2698019 250 0 0 9.1777973 -9.8745193 26.616346 0
-0.91444641 -19.847654 -2.2999761 250 0 0 10.514852 -6.2733116 25.939829 0
-0.83504647 -19.816517 -2.3097019 250 0 0 9.2860928 -6.4161172 27.202744 0
-0.68157649 -19.751612 -2.2761769 250 0 0 7.4446115 -6.8188038 28.164858 0
-0.50201637 -19.632318 -2.2208824 250 0 0 9.151289 -9.0453529 29.32839 0
-0.28608316 -19.520693 -2.2757044 250 0 0 6.0924282 -10.12395 28.501245 0
-0.22053389 -19.473181 -2.2733207 250 0 0 4.7687011 -9.4150658 27.259033 0
-0.082545727 -19.408329 -2.2476869 250 0 0 4.6803617 -9.0028296 25.216352 0
0.094172046 -19.298868 -2.2441275 250 0 0 8.6875982 -8.5170536 24.63456 0
0.15572771 -19.264872 -2.2631691 250 0 0 9.356595 -7.82967 24.745111 0
0.28990689 -19.183899 -2.2554512 250 0 0 9.6411295 -10.369398 27.314266 0
0.51746744 -19.084929 -2.2349494 250 0 0 6.2443147 -11.498779 32.435429 0
0.70886958 -18.964819 -2.2084682 250 0 0 8.7459774 -11.931802 33.138985 0
0.78186822 -18.925743 -2.2418246 250 0 0 8.198782 -12.533205 32.897243 0
0.91189325 -18.840397 -2.2612302 250 0 0 6.77841 -12.169893 30.365927 0
1.1002911 -18.732405 -2.2486696 250 0 0 5.6317782 -10.831959 25.285091 0
1.1549742 -18.6929 -2.2193315 250 0 0 7.8392901 -10.018415 24.605505 0
1.2688924 -18.624283 -2.2140465 250 0 0 9.382205 -11.942256 23.323568 0
1.4496709 -18.514828 -2.2294497 250 0 0 9.4586029 -13.902159 25.768293 0
1.4929748 -18.461718 -2.2043509 250 0 0 9.6825056 -14.506745 27.417107 0
1.664633 -18.404522 -2.1776459 250 0 0 7.4099793 -16.003206 29.604372 0
1.8220702 -18.291378 -2.1774089 250 0 0 7.377346 -17.930111 32.326092 0
2.0354178 -18.184755 -2.2339182 250 0 0 4.2980051 -15.168573 30.746977 0
2.0858924 -18.125986 -2.2272379 250 0 0 4.098628 -14.218119 30.16592 0
2.2120824 -18.06492 -2.2048068 250 0 0 3.5773842 -12.484419 28.886095 0
2.3839939 -17.949038 -2.2105029 250 0 0 7.7102189 -10.628355 26.892622 0
2.4439254 -17.901613 -2.2168913 250 0 0 8.1930141 -10.218691 27.516291 0
2.5898809 -17.82497 -2.2291157 250 0 0 8.7278814 -11.619736 29.159327 0
2.8095686 -17.723118 -2.1709609 250 0 0 6.9180584 -13.327131 31.170618 0
2.9905338 -17.610422 -2.1612399 250 0 0 7.7140174 -13.476802 32.471329 0
3.0650692 -17.583326 -2.1879969 250 0 0 7.30832 -13.837632 32.460438 0
3.183362 -17.484608 -2.207494 250 0 0 5.8800001 -11.83291 30.392141 0
3.3815327 -17.394892 -2.1872911 250 0 0 6.1035681 -10.407569 28.034727 0
3.4507957 -17.366953 -2.1773562 250 0 0 8.3470364 -8.5251923 27.391922 0
3.5840986 -17.279692 -2.1787932 250 0 0 8.8699598 -8.6371136 26.233845 0
3.7981379 -17.156513 -2.1734569 250 0 0 8.5722122 -11.11203 30.48353 0
3.8709793 -17.125946 -2.1743746 250 0 0 7.9109149 -11.438188 32.57106 0
4.0170813 -17.068703 -2.1541688 250 0 0 7.1634512 -11.288165 32.682297 0
4.2026782 -16.954029 -2.1458321 250 0 0 7.6756668 -12.861233 35.127232 0
4.3947945 -16.838413 -2.1654468 250 0 0 5.6146636 -12.146758 34.09185 0
4.4645944 -16.806566 -2.1563518 250 0 0 4.5356326 -12.115326 34.054966 0
4.5725045 -16.724676 -2.1473718 250 0 0 6.1523328 -10.519477 31.981638 0
4.7258453 -16.571651 -2.1466911 250 0 0 8.2750254 -10.655212 34.222538 0
4.8887725 -16.408716 -2.1459756 250 0 0 7.507237 -13.733977 41.196117 0
4.9534049 -16.370642 -2.1444259 250 0 0 7.2240233 -13.308963 44.945282 0
5.0429435 -16.270828 -2.1268368 250 0 0 4.9029598 -13.182672 49.918594 0
5.2066751 -16.11252 -2.1295049 250 0 0 3.6991944 -13.497272 56.633797 0
5.2710199 -16.063944 -2.1467304 250 0 0 3.5979545 -13.344367 56.643826 0
5.3504133 -15.942842 -2.1417403 250 0 0 3.7024915 -10.601597 55.681816 0
5.4532595 -15.76107 -2.0939295 250 0 0 3.6779118 -9.7609024 56.195293 0
5.4944501 -15.699454 -2.0792611 250 0 0 4.1307449 -10.303147 58.059147 0
5.5664821 -15.568058 -2.1076267 250 0 0 4.5790653 -11.95988 62.098499 0
5.6537666 -15.362887 -2.107029 250 0 0 2.6172929 -13.791922 68.819176 0
5.7368116 -15.177767 -2.0468831 250 0 0 1.0896164 -12.225546 77.380722 0
5.7584615 -15.112639 -2.0355976 250 0 0 1.678268 -12.665568 80.831802 0
5.8262453 -14.970792 -2.0580566 250 0 0 1.0691301 -14.119685 84.669586 0
5.8964291 -14.755669 -2.0427032 250 0 0 -0.43762231 -11.446291 85.992142 0
5.9352422 -14.678958 -2.0266201 250 0 0 -1.8159121 -12.051263 85.245132 0
5.9477329 -14.5383 -2.0032692 250 0 0 1.9009666 -10.496629 84.386627 0
5.9807243 -14.320663 -2.0117357 250 0 0 3.2541039 -13.21363 88.819603 0
6.0422544 -14.093534 -2.0124495 250 0 0 1.5338688 -15.495895 95.443344 0
6.0998292 -14.017193 -1.9894888 250 0 0 -0.60157466 -14.925656 97.235245 0
6.0877256 -13.865593 -1.964974 250 0 0 -0.7921415 -13.602071 98.146912 0
6.1275568 -13.625962 -1.9666591 250 0 0 -0.43930516 -15.862985 101.41917 0
6.1341825 -13.546604 -1.9703733 250 0 0 -0.26988706 -14.615408 100.93651 0
6.1484728 -13.388499 -1.9188616 250 0 0 -1.9710109 -14.147984 101.20544 0
6.11728 -13.129889 -1.877916 250 0 0 1.478773 -12.718414 99.108803 0
6.1175056 -12.911604 -1.873174 250 0 0 3.1486263 -14.274863 104.2589 0
6.1109157 -12.839965 -1.857975 250 0 0 2.4467833 -14.869106 106.08437 0
6.1127357 -12.698158 -1.8198841 250 0 0 -1.4983637 -14.538502 113.13636 0
6.1146655 -12.463758 -1.744612 250 0 0 -2.8581996 -13.113494 115.19232 0
6.1139131 -12.391938 -1.7131022 250 0 0 -3.0093453 -13.90627 116.33099 0
6.1189651 -12.224192 -1.7237309 250 0 0 -2.9629915 -16.625755 116.33305 0
6.1033535 -12.007252 -1.6964723 250 0 0 -3.0068462 -15.615913 113.60409 0
6.1272392 -11.929053 -1.6759183 250 0 0 -3.8342333 -15.830842 112.29846 0
6.0909777 -11.80693 -1.6738644 250 0 0 -0.48357424 -13.354384 109.809 0
6.0375872 -11.598247 -1.6452316 250 0 0 1.6031687 -15.476111 113.46414 0
6.0257044 -11.385694 -1.6386497 250 0 0 -0.5509966 -15.404449 116.86141 0
6.0470438 -11.306893 -1.6041183 250 0 0 -1.9051814 -14.92092 118.6833 0
6.0243444 -11.177477 -1.5767382 250 0 0 -1.0473354 -14.847373 119.14151 0
6.0075989 -10.957907 -1.5687472 250 0 0 -0.31722087 -16.903328 119.29416 0
6.0137444 -10.882036 -1.5747153 250 0 0 -0.04374893 -16.402496 118.7086 0
5.9890332 -10.743992 -1.5458773 250 0 0 -1.7687873 -15.994949 116.58974 0
5.9427366 -10.543839 -1.5105237 250 0 0 2.5953379 -13.882699 111.48775 0
5.925714 -10.468819 -1.4969501 250 0 0 3.3727224 -14.211922 111.48401 0
5.8621755 -10.339795 -1.4932247 250 0 0 4.7742438 -15.004819 113.93257 0
5.8343649 -10.089322 -1.4742709 250 0 0 0.84630644 -16.194229 118.13224 0
5.7859063 -9.8854265 -1.4208874 250 0 0 0.48317203 -15.027479 118.93117 0
5.7720637 -9.8101025 -1.4102242 250 0 0 0.92738473 -15.371758 119.37282 0
5.7278728 -9.6653891 -1.4135867 250 0 0 2.8138516 -15.691768 118.46611 0
5.6656866 -9.4580116 -1.376647 250 0 0 0.82519567 -16.235031 116.90314 0
5.6465859 -9.4003325 -1.3835894 250 0 0 0.064558655 -15.927531 114.86005 0
5.5837631 -9.2801123 -1.3541116 250 0 0 3.4686358 -14.320516 113.80824 0
5.4906797 -9.074605 -1.340185 250 0 0 4.5688901 -16.02037 115.14841 0
5.434268 -8.8610325 -1.3149811 250 0 0 1.2621784 -15.323943 120.07895 0
5.4083757 -8.795763 -1.3001039 250 0 0 -0.64667374 -15.722767 119.72995 0
5.3385615 -8.6758728 -1.2730447 250 0 0 0.92673683 -14.36231 120.99494 0
5.2521915 -8.4670248 -1.2761252 250 0 0 1.534588 -16.011795 120.1148 0
5.2227707 -8.4007502 -1.2703121 250 0 0 0.62343228 -15.093078 119.20632 0
5.1607184 -8.2722416 -1.2317128 250 0 0 0.44674957 -15.035705 117.68201 0
5.0529022 -8.0944662 -1.2141107 250 0 0 3.2503228 -15.330791 115.87283 0
5.008162 -8.0395651 -1.2210133 250 0 0 4.2966003 -15.005157 115.96378 0
4.9518347 -7.8922863 -1.2167416 250 0 0 3.3915322 -16.189856 119.07751 0
4.8801036 -7.6860242 -1.1688187 250 0 0 0.13269863 -15.547947 122.06924 0
4.7878547 -7.5031056 -1.1387081 250 0 0 1.4491906 -14.304239 121.74693 0
4.7595835 -7.4313126 -1.1379761 250 0 0 1.5163199 -14.739635 121.29769 0
4.6994991 -7.2955341 -1.1447021 250 0 0 1.902895 -14.350371 118.34036 0
4.6062331 -7.1170931 -1.0801542 250 0 0 0.51086771 -14.916792 114.94706 0
4.5698209 -7.0684471 -1.073249 250 0 0 1.744316 -14.516981 114.59447 0
4.5099483 -6.9384241 -1.0729563 250 0 0 4.0440011 -14.443789 113.97572 0
4.4050155 -6.7201781 -1.0563512 250 0 0 4.0935197 -15.475568 117.07098 0
4.3222022 -6.5195045 -1.0154243 250 0 0 0.31171972 -15.476663 121.28722 0
4.2790775 -6.4660954 -0.99950612 250 0 0 1.2438893 -14.670769 121.82961 0
4.2134542 -6.3212638 -0.97583866 250 0 0 1.2905205 -16.850418 123.01963 0
4.1184244 -6.1246624 -0.98848301 250 0 0 1.8959608 -15.924714 120.29103 0
4.0980997 -6.0568113 -0.9767943 250 0 0 0.59667432 -15.518233 119.68569 0
4.033709 -5.9557939 -0.95372754 250 0 0 1.3678374 -13.544552 115.97009 0
3.9032073 -5.7658539 -0.93819153 250 0 0 3.7941387 -14.143628 115.55743 0
3.8603954 -5.6952128 -0.91306782 250 0 0 3.4533677 -14.914466 116.95884 0
3.7831564 -5.578691 -0.9088679 250 0 0 3.0967698 -16.004507 119.00687 0
3.690321 -5.3873591 -0.86782587 250 0 0 0.75533158 -15.025113 120.4515 0
3.6002777 -5.180953 -0.85862327 250 0 0 1.4489372 -16.165163 121.75054 0
3.5657525 -5.1202512 -0.87641299 250 0 0 0.55798519 -16.198639 119.50372 0
3.4678082 -5.0088916 -0.83199155 250 0 0 1.9989707 -14.367917 117.34245 0
3.3567414 -4.8296194 -0.77629477 250 0 0 3.5743647 -14.542825 112.95386 0
3.3337927 -4.7415495 -0.76792604 250 0 0 5.0759249 -15.40816 112.10246 0
3.2530928 -4.6261773 -0.78407723 250 0 0 6.1208358 -15.18471 112.34938 0
3.169915 -4.4204226 -0.72738272 250 0 0 5.6663313 -16.346893 117.54163 0
3.1576571 -4.3249288 -0.71222806 250 0 0 2.2200203 -16.549076 119.69434 0
3.0892839 -4.2691932 -0.68589753 250 0 0 2.8530819 -15.152229 119.70872 0
3.009289 -4.0632477 -0.70437729 250 0 0 1.8697305 -16.263386 120.66881 0
2.9135771 -3.8658619 -0.64077312 250 0 0 -0.13815954 -15.135283 118.0048 0
2.9053607 -3.8252385 -0.63103485 250 0 0 -0.7069611 -16.12339 116.09758 0
2.83623 -3.7311265 -0.6061148 250 0 0 3.0985622 -14.698541 112.39005 0
2.7226422 -3.5207353 -0.57764184 250 0 0 4.6119957 -15.22701 112.79135 0
2.7040501 -3.4435947 -0.59544414 250 0 0 3.8657668 -16.834515 114.56226 0
2.6413362 -3.30968 -0.5561285 250 0 0 2.0086019 -16.852709 119.12625 0
2.5093951 -3.1359529 -0.50344408 250 0 0 1.1769588 -17.578154 121.73058 0
2.4036889 -2.9345679 -0.53192466 250 0 0 0.40030035 -19.159245 122.48992 0
2.3717642 -2.8774898 -0.52957809 250 0 0 -0.4656449 -17.998318 121.03138 0
2.3108635 -2.7508295 -0.47019592 250 0 0 -0.96500456 -17.792553 118.48241 0
2.2090554 -2.5904286 -0.42481619 250 0 0 4.2656956 -17.065411 114.30864 0
2.1720133 -2.5569289 -0.43214348 250 0 0 4.559772 -17.500374 114.58321 0
2.0964701 -2.4282544 -0.42333609 250 0 0 4.0386624 -18.773968 116.72081 0
2.0022187 -2.2265732 -0.39567453 250 0 0 1.1561852 -19.103188 122.33836 0
1.8722569 -2.0904415 -0.3446531 250 0 0 1.1088169 -18.632313 124.62893 0
1.8264538 -2.0293849 -0.35714328 250 0 0 0.018908272 -19.98279 124.91277 0
1.7528882 -1.8918248 -0.3719402 250 0 0 -0.29442725 -19.184204 122.83498 0
1.6582798 -1.7499311 -0.34973675 250 0 0 -1.5102288 -17.538609 116.77238 0
1.6169866 -1.7090824 -0.33178991 250 0 0 1.250623 -15.736843 114.97392 0
1.5578359 -1.5671562 -0.31593764 250 0 0 4.7851796 -14.892784 113.07551 0
1.4323399 -1.3812741 -0.29394466 250 0 0 4.438868 -16.527838 115.70055 0
1.3884867 -1.3170071 -0.23954591 250 0 0 5.2705927 -17.703093 116.75067 0
1.3278604 -1.2123127 -0.2256397 250 0 0 2.1755178 -19.595406 118.77041 0
1.2136984 -1.0366508 -0.19528435 250 0 0 1.0679661 -19.719416 122.41306 0
1.093207 -0.86915296 -0.18858545 250 0 0 -0.80492109 -18.722738 122.81281 0
1.0753435 -0.81216055 -0.1981542 250 0 0 -0.90131527 -18.963556 122.86488 0
0.97452229 -0.76026618 -0.15950088 250 0 0 0.6682241 -17.134558 123.20688 0
0.87903118 -0.62823808 -0.16022287 250 0 0 1.9241397 -17.39834 128.74609 0
0 0 0 1 0 0 0 1 0 0 0 1 0 0 0 0 0 580 1 0 0
