ply
format ascii 1.0
comment PCL generated
element vertex 48
property float x
property float y
property float z
property uchar red
property uchar green
property uchar blue
property float nx
property float ny
property float nz
property float curvature
element camera 1
property float view_px
property float view_py
property float view_pz
property float x_axisx
property float x_axisy
property float x_axisz
property float y_axisx
property float y_axisy
property float y_axisz
property float z_axisx
property float z_axisy
property float z_axisz
property float focal
property float scalex
property float scaley
property float centerx
property float centery
property int viewportx
property int viewporty
property float k1
property float k2
end_header
-6.5219488 22.378214 0.44715834 250 0 0 -4.4927273 -1.0049411 115.99362 0
-5.5793667 23.461882 0.46245509 250 0 0 -5.2609892 -0.71366543 113.88814 0
-5.0615897 23.974463 0.48355183 250 0 0 -5.1985106 0.43289676 114.34718 0
-3.8222106 25.050531 0.50385278 250 0 0 -5.0745964 1.2705551 114.49135 0
-2.3552647 26.384651 0.55321372 250 0 0 -6.8809457 3.264174 116.35642 0
-1.3356475 27.347099 0.57900488 250 0 0 -6.5149231 1.1252193 116.89912 0
-1.0745412 27.592047 0.58095878 250 0 0 -6.578649 1.2896007 117.98336 0
-0.38257936 28.209373 0.65729553 250 0 0 -6.9618926 0.20009987 119.81458 0
0.50232857 29.02491 0.7305758 250 0 0 -6.9281106 -0.52140164 120.58042 0
1.2166657 29.701067 0.78882921 250 0 0 -7.631526 0.1204389 121.57193 0
2.7404459 31.120188 0.90495181 250 0 0 -7.0883355 0.20969878 121.35841 0
2.7413785 31.124722 0.90191275 250 0 0 -7.0883355 0.20969878 121.35841 0
2.9853389 31.362358 0.92896074 250 0 0 -7.2005486 0.29555994 121.52319 0
2.9865425 31.368008 0.92645824 250 0 0 -7.2005486 0.29555994 121.52319 0
3.2366364 31.635422 0.9439103 250 0 0 -6.8683128 0.74179548 121.42089 0
3.5122914 31.884438 0.96428239 250 0 0 -7.054451 1.509984 121.56173 0
3.5135291 31.8901 0.96103168 250 0 0 -7.054451 1.509984 121.56173 0
3.8335698 32.135601 0.97831511 250 0 0 -7.3246918 2.389858 121.68335 0
4.3623567 32.773457 1.0172747 250 0 0 -7.08389 1.0219303 120.48763 0
5.0983005 33.675625 1.0811328 250 0 0 -9.6552353 1.466908 121.73528 0
5.6982708 34.751205 1.0909497 250 0 0 -7.7911344 -1.3903397 120.92472 0
6.8049369 36.119862 1.1599579 250 0 0 -8.3454323 -4.1678047 119.88448 0
7.5481372 36.789387 1.2430859 250 0 0 -8.8756142 -5.866487 117.89751 0
7.9872322 37.460545 1.2961075 250 0 0 -9.2148199 -5.1829429 117.75033 0
8.8290529 38.095123 1.4211147 250 0 0 -9.8067265 -3.7284458 117.47372 0
9.6736917 39.188553 1.4758664 250 0 0 -10.000552 -3.9438021 117.77515 0
10.292274 39.925537 1.5275215 250 0 0 -9.0223837 -5.5166597 117.1045 0
11.1217 40.740826 1.628425 250 0 0 -9.0311852 -5.6646228 117.4236 0
11.719536 41.148968 1.7106726 250 0 0 -8.9918289 -5.8237901 117.49234 0
12.420137 41.823322 1.8150766 250 0 0 -9.179306 -6.3504577 117.73638 0
13.90522 43.529659 2.0182517 250 0 0 -9.235817 -6.4049783 118.74858 0
14.654606 44.204071 2.1376235 250 0 0 -9.7298899 -5.6755009 118.36275 0
15.031012 44.719692 2.1811962 250 0 0 -10.0289 -6.8814631 118.33961 0
15.841013 45.725689 2.2842829 250 0 0 -9.9523048 -7.0139632 118.18925 0
16.777044 46.012733 2.5013418 250 0 0 -8.8948269 -7.6587067 116.27044 0
17.730774 47.047745 2.6545436 250 0 0 -8.6571913 -7.8541698 116.16372 0
18.067039 47.360508 2.6944036 250 0 0 -8.8358383 -7.6869884 116.50879 0
18.712814 48.324326 2.7713819 250 0 0 -8.9879541 -7.8587775 117.25363 0
19.528698 48.54607 2.9904332 250 0 0 -12.771991 -5.0375752 117.71342 0
20.370531 49.393005 3.1079383 250 0 0 -10.756318 -7.1953201 118.69502 0
21.554274 49.999825 3.2433009 250 0 0 -12.652925 -8.1968107 118.14655 0
22.946651 51.831474 3.4686122 250 0 0 -11.84047 -4.4089427 117.71317 0
24.141113 53.235149 3.6240323 250 0 0 -11.074661 -5.8725991 118.3993 0
26.527327 55.785698 4.0184927 250 0 0 -11.85152 -7.3862877 119.80196 0
26.684973 56.06905 4.065567 250 0 0 -13.468103 -7.2653298 120.35748 0
27.286934 56.674095 4.1644816 250 0 0 -12.262875 -7.8556714 118.68842 0
29.455252 59.170284 4.5815983 250 0 0 -15.696998 -5.7610059 125.94197 0
31.051567 61.215027 4.9076605 250 0 0 -17.865879 -6.0611219 129.64752 0
0 0 0 1 0 0 0 1 0 0 0 1 0 0 0 0 0 48 1 0 0
