ply
format ascii 1.0
comment PCL generated
element vertex 101
property float x
property float y
property float z
property uchar red
property uchar green
property uchar blue
property float nx
property float ny
property float nz
property float curvature
element camera 1
property float view_px
property float view_py
property float view_pz
property float x_axisx
property float x_axisy
property float x_axisz
property float y_axisx
property float y_axisy
property float y_axisz
property float z_axisx
property float z_axisy
property float z_axisz
property float focal
property float scalex
property float scaley
property float centerx
property float centery
property int viewportx
property int viewporty
property float k1
property float k2
end_header
0.016217032 0.014624442 0.030760048 250 250 250 -2.7236667 2.2746236 -1.1702776 0
0.021897251 0.019383326 0.038235158 250 250 250 -3.4885933 2.5281246 -1.1526939 0
0.025283152 0.02394959 0.043524563 250 250 250 -4.0586953 2.9420269 -1.250198 0
0.029373821 0.025825176 0.048621699 250 250 250 -4.4209685 3.5720291 -1.5256845 0
0.032655384 0.027713094 0.054608017 250 250 250 -4.529448 4.24264 -2.0911856 0
0.03633929 0.029110305 0.061531607 250 250 250 -4.6564417 4.7761507 -2.4866626 0
0.040065061 0.030343734 0.068670988 250 250 250 -4.9603024 5.1650243 -2.6692832 0
0.043895338 0.031069471 0.076041535 250 250 250 -5.4383307 5.4062638 -2.6467216 0
0.047373146 0.031735376 0.08341752 250 250 250 -6.0460114 5.3945966 -2.5200288 0
0.050750371 0.031933695 0.090833671 250 250 250 -6.6373143 5.1843033 -2.3305142 0
0.053799115 0.032090176 0.098082691 250 250 250 -7.1902165 4.8420367 -2.1671743 0
0.056271397 0.032451566 0.10458338 250 250 250 -7.6550951 4.6585016 -2.2194085 0
0.058564067 0.033256132 0.11080156 250 250 250 -7.8866062 4.9728179 -2.2341177 0
0.060920846 0.03362266 0.11668494 250 250 250 -7.9198718 5.6958561 -2.0707102 0
0.065581799 0.030041033 0.12287769 250 250 250 -7.6833334 6.5056667 -1.8584996 0
0.069895647 0.026469016 0.12645982 250 250 250 -7.5848651 6.8495345 -2.1142268 0
0.076071225 0.022299564 0.12980768 250 250 250 -7.691927 7.6138353 -2.9646888 0
0.083322458 0.017834919 0.13633533 250 250 250 -7.7703156 7.7759213 -3.7837186 0
0.089484617 0.016978042 0.14559925 250 250 250 -7.3741612 6.9278483 -3.7232835 0
0.094127178 0.017188471 0.15216148 250 250 250 -7.2238531 5.5323439 -2.5616412 0
0.098036975 0.016674725 0.15421009 250 250 250 -7.4038239 4.4320045 -1.2975683 0
0.10251334 0.015823005 0.15612639 250 250 250 -7.4263988 3.5581298 -0.38389477 0
0.10696664 0.015295823 0.15805696 250 250 250 -7.2149587 2.8455219 0.35479102 0
0.11170384 0.015626064 0.16011047 250 250 250 -7.1061282 2.6806664 0.9967314 0
0.11728726 0.016235581 0.16304693 250 250 250 -7.304698 2.9968905 1.7639697 0
0.12352123 0.016982771 0.16588719 250 250 250 -7.3970256 3.1571274 2.7396348 0
0.12968628 0.017469617 0.16691685 250 250 250 -7.2345724 3.4115787 3.4606569 0
0.13653855 0.018686768 0.16723691 250 250 250 -7.1951041 4.2836714 3.2688277 0
0.14388168 0.020239634 0.17051566 250 250 250 -6.5947609 5.6659603 2.8805747 0
0.15162323 0.022113429 0.17528419 250 250 250 -5.7954555 6.940587 2.7838452 0
0.15932573 0.023998836 0.18012275 250 250 250 -5.0480442 7.7665329 3.0956364 0
0.16705458 0.025332296 0.18410942 250 250 250 -4.4210076 8.0587244 3.6255095 0
0.17440113 0.026455441 0.18704414 250 250 250 -4.125977 8.2564106 3.7257092 0
0.18107153 0.028189305 0.19026543 250 250 250 -4.1453748 8.4251366 3.4249663 0
0.18770289 0.030010706 0.19345886 250 250 250 -4.0681801 8.3579378 3.2176762 0
0.19349869 0.032768779 0.19648415 250 250 250 -3.9836864 8.0102835 3.0958507 0
0.19911005 0.035493236 0.1992138 250 250 250 -3.9083509 7.8705912 2.9544222 0
0.20465182 0.037313323 0.201153 250 250 250 -4.0093794 7.940094 2.5075374 0
0.2094592 0.040611058 0.2029589 250 250 250 -4.5207901 8.5733957 1.5547742 0
0.21460031 0.044070456 0.20456553 250 250 250 -5.218657 9.6740513 0.42405698 0
0.22024642 0.048156437 0.20747477 250 250 250 -5.8530703 10.892645 -0.46872792 0
0.22588676 0.053895723 0.20985316 250 250 250 -6.5242834 12.122789 -0.84253377 0
0.23191944 0.059824135 0.21165897 250 250 250 -7.2555566 13.611421 -0.73870569 0
0.2383866 0.065536335 0.21308695 250 250 250 -7.9370327 15.414107 -0.4064973 0
0.24503605 0.070915066 0.21375549 250 250 250 -8.7083282 17.543629 -0.081998087 0
0.25234014 0.075811654 0.21386527 250 250 250 -9.4548187 20.001669 0.30123428 0
0.25986367 0.079946451 0.21359009 250 250 250 -10.242291 22.490919 0.86806417 0
0.26747745 0.082961909 0.21310647 250 250 250 -10.873416 24.769793 1.611653 0
0.2736271 0.083653979 0.21327905 250 250 250 -11.223849 26.267031 2.3876929 0
0.27880332 0.08429683 0.21477886 250 250 250 -11.296161 26.477137 2.6194816 0
0.28624183 0.083096378 0.22164929 250 250 250 -10.901282 26.199369 2.3718526 0
0.28904635 0.08049275 0.22272217 250 250 250 -10.015286 25.539095 1.7617712 0
0.29021922 0.081194319 0.22033112 250 250 250 -9.3723001 25.454048 0.81971592 0
0.29239136 0.082841806 0.21742071 250 250 250 -8.9766645 25.986374 -0.1019875 0
0.2949999 0.084667541 0.21435432 250 250 250 -8.7675362 26.785809 -0.79646176 0
0.29738927 0.086444788 0.21179104 250 250 250 -8.5293522 27.618181 -1.0501685 0
0.30027393 0.088325493 0.21118265 250 250 250 -8.1267281 28.156923 -0.80009156 0
0.30281419 0.090017565 0.21090193 250 250 250 -7.4867959 28.171679 -0.22560914 0
0.30493021 0.08952672 0.21063469 250 250 250 -6.545022 28.06529 0.4469384 0
0.30671036 0.088810101 0.21025845 250 250 250 -5.5636783 28.038721 0.92937064 0
0.30824852 0.086800739 0.20959069 250 250 250 -4.5763345 28.104355 1.2603896 0
0.30970326 0.084871866 0.20896222 250 250 250 -3.8981504 28.575428 1.1931328 0
0.31120059 0.083549678 0.20826913 250 250 250 -3.3531039 29.138336 0.96577716 0
0.31338134 0.082435504 0.20862351 250 250 250 -2.7913256 29.494753 0.86848181 0
0.31540328 0.082674466 0.20907976 250 250 250 -2.1664205 29.339443 0.9341554 0
0.31754199 0.083081856 0.20976159 250 250 250 -1.4685875 28.979261 1.2795726 0
0.31867215 0.083445765 0.20969266 250 250 250 -1.3054911 28.091768 1.6209792 0
0.31946778 0.083345465 0.21016404 250 250 250 -1.6667777 27.365618 1.7735763 0
0.3199999 0.083622098 0.21068123 250 250 250 -2.1713543 26.448038 1.680545 0
0.32081291 0.083785385 0.21238832 250 250 250 -2.3679738 25.377104 1.7497447 0
0.32116708 0.084397778 0.21357553 250 250 250 -2.1865208 23.897648 2.0387149 0
0.32095832 0.085186101 0.2139999 250 250 250 -1.958979 22.474642 2.4658623 0
0.32058513 0.085913084 0.21444429 250 250 250 -1.8973528 21.270437 2.8073885 0
0.31993574 0.086620428 0.21503496 250 250 250 -1.9470257 20.162985 3.035809 0
0.31892231 0.087154672 0.21509662 250 250 250 -2.1601443 18.961004 3.2286012 0
0.31724992 0.088408656 0.21521163 250 250 250 -2.5519004 17.775986 3.3821762 0
0.31541497 0.090460986 0.21659276 250 250 250 -2.7671831 16.538715 3.8139513 0
0.31161505 0.09405414 0.21274504 250 250 250 -2.9360271 14.673439 4.6245909 0
0.30771139 0.097241059 0.20908622 250 250 250 -3.6521025 13.30187 5.8220162 0
0.30402344 0.099662602 0.20663624 250 250 250 -5.0681925 12.248899 7.0091891 0
0.2990014 0.099622868 0.21036372 250 250 250 -6.3813782 11.132743 8.1458826 0
0.29335377 0.1007414 0.2127187 250 250 250 -7.3717504 9.5568037 9.1999722 0
0.28736797 0.099450402 0.21291864 250 250 250 -8.1151848 8.1013403 10.129553 0
0.28169808 0.095122889 0.21307704 250 250 250 -8.790535 7.1950235 10.488334 0
0.27665913 0.092178747 0.21495384 250 250 250 -9.4422293 6.6955533 10.032784 0
0.27175707 0.094766252 0.21799667 250 250 250 -9.6833658 6.0611854 9.0895634 0
0.26788425 0.095976382 0.21769999 250 250 250 -9.4879637 5.1149712 8.5144091 0
0.26439351 0.096521042 0.21659186 250 250 250 -9.560297 4.2493787 8.1130018 0
0.26105216 0.097211756 0.21510042 250 250 250 -9.7647095 3.5368273 7.8122172 0
0.25796461 0.097509183 0.2150459 250 250 250 -9.8874683 3.0667377 7.5621042 0
0.25502384 0.09747006 0.21475659 250 250 250 -9.8668737 2.4404778 7.0700202 0
0.25199407 0.096756279 0.21423262 250 250 250 -9.5236416 1.9091463 6.3897986 0
0.24907848 0.095100634 0.21369947 250 250 250 -9.2384491 1.6753769 5.6280284 0
0.24614441 0.094946213 0.21314585 250 250 250 -9.1782999 1.5705636 4.8297768 0
0.24309959 0.097193107 0.21074064 250 250 250 -9.176796 1.3206016 4.3349228 0
0.24048413 0.09818422 0.20845878 250 250 250 -9.2258644 1.2754917 4.395267 0
0.23804741 0.097909406 0.20816755 250 250 250 -9.3786697 1.4524572 4.5722294 0
0.23558901 0.097596243 0.20869774 250 250 250 -9.5508947 1.6532022 4.6640425 0
0.23349129 0.097743586 0.20836274 250 250 250 -9.6825676 1.7166439 4.773726 0
0.23148318 0.098138258 0.20797814 250 250 250 -9.8347015 1.7946153 4.9534545 0
0.22961973 0.097710736 0.21022992 250 250 250 -9.9672508 2.1581688 5.2264872 0
0 0 0 1 0 0 0 1 0 0 0 1 0 0 0 0 0 101 1 0 0
