ply
format ascii 1.0
comment PCL generated
element vertex 48
property float x
property float y
property float z
property uchar red
property uchar green
property uchar blue
property float nx
property float ny
property float nz
property float curvature
element camera 1
property float view_px
property float view_py
property float view_pz
property float x_axisx
property float x_axisy
property float x_axisz
property float y_axisx
property float y_axisy
property float y_axisz
property float z_axisx
property float z_axisy
property float z_axisz
property float focal
property float scalex
property float scaley
property float centerx
property float centery
property int viewportx
property int viewporty
property float k1
property float k2
end_header
0.94369107 -3.3305273 0.22715834 250 0 0 -4.4927273 -1.0049411 115.99362 0
1.589836 -4.6132169 0.24245508 250 0 0 -5.2609892 -0.71366543 113.88814 0
1.8682346 -5.2865124 0.2635518 250 0 0 -5.1985106 0.43289676 114.34718 0
2.3949807 -6.8410287 0.28385279 250 0 0 -5.0745964 1.2705551 114.49135 0
3.074414 -8.7038698 0.33321375 250 0 0 -6.8809457 3.264174 116.35642 0
3.5792 -10.011968 0.35900488 250 0 0 -6.5149231 1.1252193 116.89912 0
3.7070599 -10.346374 0.36095878 250 0 0 -6.578649 1.2896007 117.98336 0
4.0164618 -11.220544 0.43729553 250 0 0 -6.9618926 0.20009987 119.81458 0
4.4362707 -12.348339 0.51057577 250 0 0 -6.9281106 -0.52140164 120.58042 0
4.7916522 -13.265492 0.56882924 250 0 0 -7.631526 0.1204389 121.57193 0
5.5282412 -15.213118 0.68495178 250 0 0 -7.0883355 0.20969878 121.35841 0
5.532084 -15.215697 0.68191272 250 0 0 -7.0883355 0.20969878 121.35841 0
5.6596704 -15.531466 0.70896071 250 0 0 -7.2005486 0.29555994 121.52319 0
5.6644425 -15.534719 0.70645827 250 0 0 -7.2005486 0.29555994 121.52319 0
5.8172669 -15.867438 0.72391027 250 0 0 -6.8683128 0.74179548 121.42089 0
5.9433866 -16.21685 0.74428242 250 0 0 -7.054451 1.509984 121.56173 0
5.9481587 -16.22014 0.74103165 250 0 0 -7.054451 1.509984 121.56173 0
6.0542183 -16.609303 0.75831515 250 0 0 -7.3246918 2.389858 121.68335 0
6.4443989 -17.340218 0.79727477 250 0 0 -7.08389 1.0219303 120.48763 0
7.0007863 -18.362934 0.8611328 250 0 0 -9.6552353 1.466908 121.73528 0
7.7691584 -19.325453 0.87094963 250 0 0 -7.7911344 -1.3903397 120.92472 0
8.6169577 -20.867908 0.93995792 250 0 0 -8.3454323 -4.1678047 119.88448 0
8.9552727 -21.809265 1.023086 250 0 0 -8.8756142 -5.866487 117.89751 0
9.4102325 -22.469772 1.0761075 250 0 0 -9.2148199 -5.1829429 117.75033 0
9.6788673 -23.489178 1.2011147 250 0 0 -9.8067265 -3.7284458 117.47372 0
10.37113 -24.684912 1.2558664 250 0 0 -10.000552 -3.9438021 117.77515 0
10.81906 -25.536465 1.3075215 250 0 0 -9.0223837 -5.5166597 117.1045 0
11.259645 -26.612816 1.408425 250 0 0 -9.0311852 -5.6646228 117.4236 0
11.411069 -27.320669 1.4906726 250 0 0 -8.9918289 -5.8237901 117.49234 0
11.769984 -28.224428 1.5950766 250 0 0 -9.179306 -6.3504577 117.73638 0
12.787061 -30.244974 1.7982516 250 0 0 -9.235817 -6.4049783 118.74858 0
13.127558 -31.193907 1.9176235 250 0 0 -9.7298899 -5.6755009 118.36275 0
13.462293 -31.737505 1.9611963 250 0 0 -10.0289 -6.8814631 118.33961 0
14.08674 -32.868076 2.0642829 250 0 0 -9.9523048 -7.0139632 118.18925 0
13.998041 -33.843105 2.2813418 250 0 0 -8.8948269 -7.6587067 116.27044 0
14.594934 -35.117695 2.4345436 250 0 0 -8.6571913 -7.8541698 116.16372 0
14.757107 -35.547337 2.4744036 250 0 0 -8.8358383 -7.6869884 116.50879 0
15.404692 -36.509937 2.5513818 250 0 0 -8.9879541 -7.8587775 117.25363 0
15.301042 -37.349041 2.7704332 250 0 0 -12.771991 -5.0375752 117.71342 0
15.76622 -38.448856 2.8879383 250 0 0 -10.756318 -7.1953201 118.69502 0
15.87971 -39.774223 3.0233009 250 0 0 -12.652925 -8.1968107 118.14655 0
17.047869 -41.756409 3.2486122 250 0 0 -11.84047 -4.4089427 117.71317 0
17.894842 -43.393383 3.4040322 250 0 0 -11.074661 -5.8725991 118.3993 0
19.352129 -46.567596 3.7984929 250 0 0 -11.85152 -7.3862877 119.80196 0
19.554705 -46.820782 3.8455672 250 0 0 -13.468103 -7.2653298 120.35748 0
19.886812 -47.607002 3.9444818 250 0 0 -12.262875 -7.8556714 118.68842 0
21.376276 -50.55896 4.361598 250 0 0 -15.696998 -5.7610059 125.94197 0
22.664457 -52.810577 4.6876607 250 0 0 -17.865879 -6.0611219 129.64752 0
0 0 0 1 0 0 0 1 0 0 0 1 0 0 0 0 0 48 1 0 0
