ply
format ascii 1.0
comment PCL generated
element vertex 663
property float x
property float y
property float z
property uchar red
property uchar green
property uchar blue
property float nx
property float ny
property float nz
property float curvature
element camera 0
property float view_px
property float view_py
property float view_pz
property float x_axisx
property float x_axisy
property float x_axisz
property float y_axisx
property float y_axisy
property float y_axisz
property float z_axisx
property float z_axisy
property float z_axisz
property float focal
property float scalex
property float scaley
property float centerx
property float centery
property int viewportx
property int viewporty
property float k1
property float k2
end_header
244.94818 184.77742 0.48320633 250 0 0 3.0341718 -4.8393545 28.991014 0
245.05583 184.83867 0.4862664 250 0 0 3.9046121 -4.5119138 28.122417 0
245.11798 184.86588 0.47917131 250 0 0 3.7379732 -3.7720125 28.43688 0
245.24947 184.91217 0.50288123 250 0 0 4.3473186 -3.3942647 28.57321 0
245.32802 184.93288 0.50221652 250 0 0 4.5996752 -3.8334439 29.051346 0
245.48747 184.96991 0.48635799 250 0 0 4.4645638 -4.9196362 29.537634 0
245.51022 185.0087 0.47710666 250 0 0 4.5648479 -5.3893132 28.996153 0
245.65236 185.05264 0.48273069 250 0 0 5.3123822 -4.9565296 29.147882 0
245.79503 185.09898 0.49717033 250 0 0 5.0170584 -3.1437752 29.895142 0
245.85883 185.12804 0.47828272 250 0 0 4.2686458 -2.5940568 30.449705 0
246.01886 185.1808 0.46957588 250 0 0 3.9048417 -1.4174052 30.056913 0
246.09845 185.20807 0.47416073 250 0 0 3.9194806 -2.2618911 29.835945 0
246.15277 185.30554 0.46091169 250 0 0 4.1678796 -4.2216029 27.932905 0
246.28484 185.30748 0.45546553 250 0 0 4.7100167 -3.9740953 28.343872 0
246.41444 185.37079 0.48479113 250 0 0 4.3272953 -1.9624473 28.035229 0
246.46744 185.40788 0.5017513 250 0 0 3.7622738 -1.9895749 27.797689 0
246.6048 185.467 0.49972069 250 0 0 4.1372561 -2.6436415 28.048492 0
246.67566 185.49445 0.49896699 250 0 0 4.2759871 -3.1257925 28.239241 0
246.81473 185.5562 0.48860908 250 0 0 3.8395679 -4.4290123 28.943798 0
246.84892 185.59854 0.48307309 250 0 0 4.4249659 -4.0014529 28.169142 0
247.00824 185.6366 0.50972211 250 0 0 3.6045063 -2.513382 28.616306 0
247.07191 185.67291 0.51347172 250 0 0 3.4661808 -2.6620023 28.631084 0
247.21483 185.73375 0.51655531 250 0 0 3.6569321 -3.8770368 28.612858 0
247.29446 185.75027 0.51710922 250 0 0 3.2288713 -4.575902 28.432091 0
247.3723 185.8309 0.52008659 250 0 0 4.1971025 -5.416893 27.065071 0
247.39647 185.87563 0.51696819 250 0 0 3.8679318 -4.3281446 27.366915 0
247.60567 185.91895 0.54048312 250 0 0 3.8719018 -2.6944475 26.321472 0
247.69484 185.93674 0.53846085 250 0 0 3.872658 -3.5390801 27.084482 0
247.87363 185.96756 0.54050112 250 0 0 4.3785238 -5.9894328 27.396414 0
247.89563 186.01302 0.52344406 250 0 0 3.8028209 -7.0670352 28.229164 0
248.00658 186.08862 0.53468621 250 0 0 3.8910241 -5.1286693 28.630388 0
248.09906 186.11118 0.5447548 250 0 0 3.0505297 -4.6804118 29.203165 0
248.24031 186.1759 0.54970956 250 0 0 3.2906902 -4.6796923 29.804029 0
248.29602 186.21637 0.53889728 250 0 0 3.3424206 -4.9941711 29.62019 0
248.38498 186.30309 0.51932758 250 0 0 4.3692231 -4.9415846 28.24815 0
248.54459 186.36076 0.5274635 250 0 0 5.4049206 -3.656826 27.827084 0
248.61707 186.38045 0.54154813 250 0 0 5.6394157 -2.8033121 27.824162 0
248.74394 186.42694 0.54743147 250 0 0 5.9157147 -3.23996 27.923258 0
248.81395 186.44888 0.54227036 250 0 0 5.9143672 -3.4531004 28.369755 0
248.93973 186.50035 0.52871001 250 0 0 5.8500838 -4.6271529 29.376282 0
248.98984 186.53146 0.51909649 250 0 0 6.0023098 -3.9983146 29.617437 0
249.0977 186.59572 0.52469176 250 0 0 6.0148058 -2.7916112 31.443531 0
249.1584 186.62024 0.54070073 250 0 0 5.3089104 -2.3417766 32.569294 0
249.2605 186.66492 0.52474207 250 0 0 4.8324594 -1.0739874 32.488544 0
249.31883 186.69383 0.52857804 250 0 0 4.6796303 -1.0373608 32.340973 0
249.44086 186.74753 0.52105349 250 0 0 4.4468207 -3.6464934 31.573109 0
249.43889 186.81882 0.46733588 250 0 0 4.9669361 -4.3969264 30.575869 0
249.62135 186.85252 0.47688586 250 0 0 5.7448616 -4.161943 30.477716 0
249.68663 186.86995 0.47794721 250 0 0 5.298739 -3.2736378 29.996689 0
249.80162 186.94221 0.52177906 250 0 0 5.8179111 -3.8777931 29.773767 0
249.85916 186.97818 0.51805985 250 0 0 6.1626682 -4.7840209 30.779028 0
249.94176 187.0585 0.56547838 250 0 0 6.0966949 -8.331069 34.255672 0
250.01294 187.06512 0.42114159 250 0 0 6.4112439 -7.1641407 36.880646 0
250.12387 187.12741 0.52365714 250 0 0 7.2764592 -4.5156641 39.121784 0
250.18399 187.14641 0.51434278 250 0 0 6.1419039 -4.6180081 39.883373 0
250.27881 187.20937 0.49450323 250 0 0 5.8821635 -3.3839188 39.97525 0
250.33188 187.24251 0.50645143 250 0 0 5.772366 -2.2605531 39.59269 0
250.40108 187.34319 0.53184265 250 0 0 6.0414596 -2.3509982 40.28112 0
250.44705 187.37404 0.53820407 250 0 0 5.8509974 -2.9076636 40.794609 0
250.50504 187.47562 0.54676366 250 0 0 5.8920937 -1.7414114 42.587967 0
250.52951 187.54054 0.558411 250 0 0 5.0493817 -2.1699879 45.67762 0
250.59116 187.63303 0.54265034 250 0 0 4.4094963 -2.7226725 51.988346 0
250.62338 187.68102 0.54174775 250 0 0 4.2507844 -2.5296094 54.970795 0
250.6778 187.77846 0.53827208 250 0 0 3.6708148 -2.0916736 61.386635 0
250.68846 187.83649 0.55198133 250 0 0 3.472846 -1.8950671 65.330414 0
250.74309 187.92473 0.54915035 250 0 0 2.4917891 -1.3973204 73.90712 0
250.77367 188.01729 0.55057073 250 0 0 2.0402482 -1.0825075 80.762039 0
250.78191 188.065 0.54530817 250 0 0 2.033565 -0.66968715 84.032516 0
250.79987 188.16367 0.55357653 250 0 0 1.0092493 -0.85428172 90.033195 0
250.79411 188.2097 0.54026097 250 0 0 1.1275959 -0.65385193 93.409767 0
250.82863 188.29445 0.56055498 250 0 0 0.72809541 -0.83073342 98.51976 0
250.83382 188.33328 0.54710042 250 0 0 0.93574017 0.24576996 100.82512 0
250.84013 188.42833 0.57536298 250 0 0 1.8961513 0.68886578 104.02713 0
250.84821 188.47566 0.5781675 250 0 0 2.2353721 0.42365006 105.86166 0
250.8558 188.57234 0.57239711 250 0 0 2.6370344 0.018260363 108.77506 0
250.8614 188.61285 0.55853575 250 0 0 2.3891461 -0.056129117 110.36095 0
250.86191 188.71416 0.56617105 250 0 0 4.1106772 0.65642923 112.30618 0
250.85391 188.75174 0.56826782 250 0 0 3.992944 0.70634931 113.46055 0
250.85027 188.84756 0.56790948 250 0 0 3.897516 0.98320431 115.32551 0
250.83719 188.89357 0.56620568 250 0 0 4.1803722 1.1093482 115.92104 0
250.83029 188.99286 0.5694375 250 0 0 4.5225906 0.44573706 116.12051 0
250.79681 189.01909 0.56101727 250 0 0 4.4054661 0.31157461 116.11904 0
250.77299 189.09579 0.56865245 250 0 0 4.5200534 -0.7441476 116.30872 0
250.76877 189.13293 0.57907206 250 0 0 4.9408507 -0.62008929 116.27635 0
250.73277 189.20024 0.57590055 250 0 0 5.0428662 -0.92826301 116.23171 0
250.71927 189.2406 0.58288205 250 0 0 4.9087687 -0.73583287 116.30412 0
250.68567 189.3308 0.58171892 250 0 0 5.4828939 -1.1590306 116.99924 0
250.67117 189.37782 0.57690293 250 0 0 5.2971978 -1.5828202 117.33749 0
250.64011 189.47101 0.57728988 250 0 0 5.5853434 -1.0648233 117.41444 0
250.64963 189.52269 0.59094733 250 0 0 5.7361512 -1.6360338 117.98337 0
250.62119 189.61069 0.5858205 250 0 0 4.7926602 -1.3149513 119.35072 0
250.60526 189.65942 0.58660883 250 0 0 4.4739175 -1.5122831 119.56616 0
250.57155 189.75519 0.57989246 250 0 0 4.236423 -0.79805529 119.85571 0
250.54872 189.80612 0.58123016 250 0 0 4.3502994 -0.89259839 119.3027 0
250.50687 189.91664 0.58010966 250 0 0 5.0374389 -1.8497267 118.90995 0
250.47467 189.95625 0.5961104 250 0 0 5.6491418 -1.7833745 118.30399 0
250.42453 190.04565 0.61058414 250 0 0 5.3851695 -2.2437441 118.59738 0
250.39679 190.0914 0.62561178 250 0 0 5.0862646 -2.3618164 118.14867 0
250.34311 190.18343 0.60454857 250 0 0 5.3961954 -2.6680112 118.69941 0
250.29482 190.26329 0.62910783 250 0 0 6.1192207 -2.7562287 118.0447 0
250.29254 190.34341 0.58319306 250 0 0 5.8523211 -3.1318877 118.67849 0
250.22615 190.42584 0.61188513 250 0 0 5.5816331 -2.5438471 118.87145 0
250.20387 190.47752 0.63501239 250 0 0 5.0855913 -1.503486 119.1608 0
250.16086 190.57622 0.64427888 250 0 0 3.4258304 -2.205821 119.66547 0
250.12479 190.63655 0.63135982 250 0 0 3.1117191 -2.191694 119.67931 0
250.07249 190.75061 0.63240987 250 0 0 3.388351 -3.0033925 118.69928 0
250.05095 190.77393 0.62525779 250 0 0 2.8701627 -3.4423921 117.40617 0
249.98129 190.87903 0.63007903 250 0 0 3.4287102 -2.6857567 115.10387 0
249.92757 190.91524 0.63765055 250 0 0 3.6078699 -1.5953811 113.95846 0
249.86954 190.97629 0.6748687 250 0 0 4.6653929 -1.6980032 112.11682 0
249.85576 191.04745 0.66833436 250 0 0 4.6510301 -2.0648983 112.35716 0
249.80208 191.15021 0.65493309 250 0 0 5.1874824 -2.838484 112.96037 0
249.78419 191.21944 0.62326133 250 0 0 5.4325314 -2.0173273 113.2345 0
249.71068 191.31317 0.66368413 250 0 0 5.0021777 -0.35400859 114.94958 0
249.67639 191.39275 0.71023297 250 0 0 4.6557722 0.71410578 116.64715 0
249.63979 191.53291 0.69288975 250 0 0 2.6091702 -0.88413715 119.39555 0
249.62762 191.61572 0.67282671 250 0 0 1.9391463 -0.95372748 119.79082 0
249.58618 191.70549 0.68211794 250 0 0 1.628657 -2.1605284 118.69746 0
249.54364 191.72997 0.6630289 250 0 0 1.1826463 -2.631356 118.16639 0
249.51428 191.8042 0.65689194 250 0 0 2.5722141 -2.7571366 117.91719 0
249.49847 191.8643 0.66818309 250 0 0 2.5827069 -1.4492216 117.73004 0
249.45055 191.92961 0.68064862 250 0 0 4.2596931 -0.99829495 116.61424 0
249.44618 191.97546 0.68439436 250 0 0 4.6047649 -0.83328849 116.77801 0
249.41162 192.10867 0.70033437 250 0 0 4.7519808 -2.096478 117.34097 0
249.38942 192.13565 0.66674548 250 0 0 4.449625 -2.7566848 117.08666 0
249.34171 192.22701 0.67034596 250 0 0 5.1667595 0.00028732666 117.982 0
249.32472 192.31947 0.70705611 250 0 0 4.608685 1.3806794 118.72794 0
249.28523 192.45222 0.70358044 250 0 0 3.5983765 0.74543923 119.22182 0
249.2699 192.50594 0.69771194 250 0 0 3.5950706 0.73001736 118.88334 0
249.23282 192.61142 0.71582365 250 0 0 3.8328083 -0.10514792 116.84591 0
249.20877 192.68031 0.68942869 250 0 0 3.4085917 -1.287527 115.36565 0
249.15976 192.71681 0.70689273 250 0 0 3.9001207 -0.33140779 114.03609 0
249.13391 192.76195 0.70668715 250 0 0 3.7555742 0.0026026382 114.24983 0
249.09047 192.88023 0.72288698 250 0 0 4.3718758 -0.60905713 114.41738 0
249.06039 193.00386 0.70044953 250 0 0 4.4856834 -1.5165768 113.67548 0
249.04456 193.05708 0.69735336 250 0 0 4.7365046 -1.6651678 113.37693 0
249.00832 193.1554 0.6801551 250 0 0 4.8959413 -0.49698991 113.04913 0
248.98369 193.20084 0.70366687 250 0 0 5.4190793 0.20575869 112.99117 0
248.95071 193.34312 0.73469734 250 0 0 4.2059937 0.79560703 114.14403 0
248.93134 193.3913 0.73659015 250 0 0 4.1427817 0.2610451 113.77779 0
248.89459 193.49951 0.72318941 250 0 0 3.4981415 0.47460058 113.34906 0
248.87019 193.55069 0.74354541 250 0 0 3.8975823 -0.14980938 113.18842 0
248.83582 193.60966 0.72268015 250 0 0 3.1993291 -1.0155796 111.85616 0
248.7986 193.70056 0.74454528 250 0 0 3.0965145 -1.1744609 112.00884 0
248.75926 193.81503 0.73159075 250 0 0 3.2486362 0.005202332 111.49177 0
248.71944 193.82819 0.75685102 250 0 0 3.3865695 0.38038412 111.07288 0
248.69307 193.93793 0.76595598 250 0 0 3.6170468 0.41946489 112.89536 0
248.66864 193.99854 0.76863617 250 0 0 3.5308125 -0.014606159 113.24004 0
248.63937 194.10979 0.76476091 250 0 0 3.8678098 -0.4627454 114.36382 0
248.61722 194.1611 0.77984369 250 0 0 4.7163568 -0.37477502 114.7047 0
248.57396 194.29442 0.81704307 250 0 0 4.9418268 0.75744575 116.42374 0
248.55643 194.35686 0.80517918 250 0 0 4.9041348 0.20875584 116.9294 0
248.5145 194.48088 0.79901415 250 0 0 4.50594 0.44549417 116.7158 0
248.49216 194.54393 0.79926777 250 0 0 4.0308223 0.029005777 116.22805 0
248.42432 194.62018 0.7757318 250 0 0 4.4095745 -0.30379692 114.85094 0
248.41281 194.73471 0.79601836 250 0 0 5.5503278 0.39223281 114.43199 0
248.35043 194.84421 0.82137358 250 0 0 4.8375244 0.40256977 113.57572 0
248.32812 194.86147 0.8464691 250 0 0 4.7323303 -0.21415433 113.37649 0
248.29048 194.99104 0.82971644 250 0 0 5.4451962 -1.0768722 113.91924 0
248.27003 195.03473 0.82905024 250 0 0 5.1111484 -1.3771284 114.12171 0
248.22441 195.14319 0.80878717 250 0 0 5.3756542 -0.16060774 114.79625 0
248.16904 195.26509 0.82672709 250 0 0 5.4832649 1.6002679 116.42701 0
248.14412 195.33519 0.85892344 250 0 0 4.7141652 2.0516672 117.3022 0
248.08899 195.48883 0.86577851 250 0 0 3.4282274 1.1486163 117.69086 0
248.0477 195.56046 0.87046278 250 0 0 3.6222348 -0.023834808 117.58694 0
247.98917 195.69727 0.83328068 250 0 0 3.8078914 -1.4119284 117.28746 0
247.95175 195.77652 0.84412992 250 0 0 3.9097538 -0.55538094 116.20187 0
247.88712 195.91922 0.86523008 250 0 0 4.0404406 0.568874 115.93996 0
247.84235 195.97546 0.8800168 250 0 0 4.0451632 0.16189678 115.56324 0
247.78304 196.12328 0.8658523 250 0 0 4.453876 -1.7441038 116.31746 0
247.75294 196.19269 0.85074943 250 0 0 4.3898001 -2.1696961 116.78577 0
247.69 196.30182 0.84605855 250 0 0 6.0824728 -1.4696949 118.78539 0
247.66522 196.37047 0.83873856 250 0 0 5.9924631 -0.34604335 120.11729 0
247.59299 196.52373 0.86520183 250 0 0 4.6463532 0.80902034 121.49992 0
247.56235 196.6095 0.87370908 250 0 0 4.2565651 0.53614372 121.51684 0
247.4906 196.7552 0.86585122 250 0 0 2.8582733 -2.5675397 119.69146 0
247.45161 196.81686 0.8520273 250 0 0 4.4299321 -1.8694993 119.32776 0
247.37862 196.95746 0.85287023 250 0 0 3.6709595 -1.445745 117.85519 0
247.34846 197.04498 0.87917137 250 0 0 3.7667127 -0.61781406 117.06943 0
247.28723 197.16841 0.89842904 250 0 0 4.9685063 -2.0830803 117.18671 0
247.26436 197.23616 0.88913435 250 0 0 5.0750551 -2.9155338 117.83531 0
247.21661 197.37741 0.87508893 250 0 0 6.7557144 -2.2210064 118.89303 0
247.19112 197.44859 0.86055094 250 0 0 7.3774562 -1.2971995 119.5936 0
247.13544 197.61589 0.89991355 250 0 0 6.1236334 0.16793205 120.4166 0
247.106 197.70544 0.88825583 250 0 0 5.3162279 0.053935096 120.322 0
247.04048 197.88293 0.90238422 250 0 0 4.4556012 -1.1727673 118.58958 0
247.01044 197.96425 0.88367248 250 0 0 4.0763187 -2.8412442 117.12653 0
246.94177 198.067 0.85642159 250 0 0 4.9288673 -1.8413062 114.3187 0
246.90865 198.14069 0.86692643 250 0 0 5.8236203 -0.045382295 113.70382 0
246.83861 198.28346 0.90654331 250 0 0 6.8717079 0.73408514 111.92661 0
246.7876 198.44124 0.90301156 250 0 0 6.5228381 -1.8782554 113.31909 0
246.7612 198.50258 0.89700121 250 0 0 6.6961126 -2.2667999 113.39107 0
246.71381 198.63441 0.88973212 250 0 0 7.6356187 -1.4321669 115.69483 0
246.69328 198.7444 0.91420233 250 0 0 7.2137213 -0.28782019 116.10294 0
246.62402 198.91681 0.93731821 250 0 0 5.2469239 -0.52689421 116.64078 0
246.58858 199.00851 0.95083445 250 0 0 5.2976418 -1.4804162 115.9907 0
246.5248 199.14279 0.92591774 250 0 0 4.3366385 -3.7650905 114.61938 0
246.49237 199.21933 0.94123751 250 0 0 5.6574974 -3.5136611 113.9472 0
246.44202 199.35999 0.94485176 250 0 0 6.5922718 -2.2186792 112.37177 0
246.39957 199.41896 0.97905445 250 0 0 6.6751533 -2.014966 111.55634 0
246.32997 199.5605 0.96021217 250 0 0 5.6040559 -3.7905979 112.83584 0
246.29947 199.63457 0.95090163 250 0 0 5.6900692 -3.8607678 113.52328 0
246.24179 199.77971 0.93417418 250 0 0 7.314837 -2.6737242 115.9435 0
246.20958 199.8445 0.92222112 250 0 0 7.4025059 -0.69445002 116.73481 0
246.14772 200.01666 0.95683616 250 0 0 5.4053674 1.7331637 118.76398 0
246.11374 200.10934 0.96536052 250 0 0 4.7802634 1.862681 119.07866 0
246.05228 200.29668 0.98182017 250 0 0 3.7736776 -0.68422073 118.32239 0
246.01355 200.35428 0.96166581 250 0 0 3.3937931 -2.2779284 116.48923 0
245.94601 200.46965 0.93344146 250 0 0 5.440804 -0.094660565 114.85696 0
245.92444 200.58232 0.95584416 250 0 0 5.6193547 2.0244901 114.25365 0
245.8322 200.72873 1.0111747 250 0 0 5.7297077 1.9745649 113.74004 0
245.79948 200.81543 1.0157462 250 0 0 5.9496808 0.27488458 114.53847 0
245.74428 200.97545 0.98699224 250 0 0 8.1871223 -1.0118415 115.61344 0
245.72548 201.06497 0.97836924 250 0 0 8.4499731 -1.0724039 116.38718 0
245.6732 201.24197 1.0128573 250 0 0 6.8623633 1.3990932 117.31386 0
245.64113 201.31676 1.0119865 250 0 0 5.929378 1.1636682 117.77039 0
245.58078 201.5127 1.0427793 250 0 0 5.8687439 0.35775331 117.04285 0
245.54893 201.60579 1.0382054 250 0 0 4.9601698 -2.085547 116.52161 0
245.49152 201.72026 1.0182744 250 0 0 5.4459887 -3.0435319 115.0098 0
245.42647 201.8779 1.0294822 250 0 0 4.9924889 -0.38040802 113.97632 0
245.38014 201.94049 1.048758 250 0 0 5.2597103 -0.21883532 113.37446 0
245.3261 202.10181 1.0529928 250 0 0 4.8442478 -2.4313114 114.4396 0
245.29271 202.18245 1.0505267 250 0 0 4.5099721 -3.7951758 115.00456 0
245.24823 202.28162 1.0420947 250 0 0 5.8672094 -3.9207501 116.78423 0
245.2189 202.36365 1.0437552 250 0 0 5.9471083 -1.5725993 117.74986 0
245.15472 202.55144 1.0626301 250 0 0 4.3992529 0.091875419 118.57637 0
245.12251 202.65492 1.0738091 250 0 0 3.8661959 -0.396045 117.973 0
245.05893 202.80058 1.0502614 250 0 0 2.9654315 -2.8421271 115.69547 0
245.02852 202.86754 1.0607476 250 0 0 3.9210007 -1.940954 114.89697 0
244.97816 202.9993 1.0656829 250 0 0 5.386868 0.071319468 113.32091 0
244.95384 203.08424 1.0907652 250 0 0 5.7613378 1.2761545 112.07222 0
244.88914 203.22514 1.1003872 250 0 0 5.9781451 0.56785846 112.06291 0
244.86801 203.31186 1.1011106 250 0 0 5.8842168 -0.65518314 112.80009 0
244.81601 203.42389 1.1030653 250 0 0 6.4951339 -3.714838 115.97888 0
244.77756 203.50002 1.125271 250 0 0 7.1667929 -2.9089348 116.92834 0
244.73238 203.68205 1.1460007 250 0 0 5.9095073 -0.38375157 117.79672 0
244.70573 203.76587 1.1484611 250 0 0 5.7050128 0.00094640878 117.659 0
244.65251 203.94775 1.1466424 250 0 0 5.1858811 -0.75013322 116.0142 0
244.62317 204.0545 1.1443309 250 0 0 4.2939043 -1.7776144 114.85569 0
244.55646 204.15326 1.1565732 250 0 0 5.6505055 -0.75658768 112.73354 0
244.5307 204.2148 1.1663805 250 0 0 5.3701572 0.73654747 112.32777 0
244.48701 204.40555 1.1713134 250 0 0 6.0313306 1.0052785 112.59467 0
244.45882 204.50172 1.1645801 250 0 0 6.0201745 -1.0592 113.71567 0
244.40283 204.62413 1.1588748 250 0 0 5.7614627 -2.7756393 115.27196 0
244.34935 204.75856 1.1722094 250 0 0 7.3067899 -0.82670325 117.00604 0
244.31874 204.82326 1.186299 250 0 0 6.7379317 1.2414678 117.72813 0
244.24995 204.98103 1.2078954 250 0 0 5.4842043 1.5422796 119.56223 0
244.21313 205.05617 1.2068849 250 0 0 4.8908277 0.92561841 119.42943 0
244.13708 205.19656 1.2216288 250 0 0 4.0735469 -1.7753974 118.07477 0
244.09714 205.23531 1.2418125 250 0 0 5.2891784 -2.3408477 116.73612 0
244.03441 205.33659 1.2539279 250 0 0 5.7514172 -0.57824123 115.11359 0
244.01239 205.42276 1.2535509 250 0 0 5.8318558 0.55572176 113.78224 0
243.98328 205.59586 1.2262775 250 0 0 5.6382909 -1.8945308 114.36559 0
243.96341 205.66742 1.2226273 250 0 0 5.3422008 -3.1716475 115.09545 0
243.90903 205.76212 1.2160456 250 0 0 6.5095296 -2.1640322 116.52792 0
243.88069 205.81158 1.2014574 250 0 0 6.7551107 -1.0793318 117.52703 0
243.84006 206.01837 1.2752005 250 0 0 4.2841172 0.20237608 119.27316 0
243.81598 206.09016 1.2697527 250 0 0 3.5202866 -0.20628689 119.16241 0
243.76451 206.24719 1.2820694 250 0 0 3.5082779 -1.2329459 117.97092 0
243.72131 206.2636 1.2666361 250 0 0 2.6090186 -1.8659592 116.78493 0
243.66443 206.42009 1.3046347 250 0 0 3.3322012 -1.2152853 115.48482 0
243.65491 206.48528 1.2793205 250 0 0 3.8315487 -0.083693244 115.26969 0
243.61386 206.64632 1.3427466 250 0 0 3.9020972 0.53050214 113.76196 0
243.59581 206.72575 1.3484629 250 0 0 4.3391623 -0.57890779 114.56496 0
243.56841 206.86037 1.3528471 250 0 0 4.1679029 -3.9329422 117.05638 0
243.54247 206.94254 1.3656003 250 0 0 5.1372209 -4.4739661 118.66312 0
243.4902 207.0399 1.3853 250 0 0 4.9486513 -2.4792531 120.26895 0
243.46083 207.13007 1.4108529 250 0 0 4.221036 -2.1224177 120.63303 0
243.41492 207.30014 1.4102137 250 0 0 3.2843888 -2.4428444 120.53904 0
243.33888 207.4142 1.4091097 250 0 0 3.1115391 -4.0961151 118.98154 0
243.30658 207.46817 1.4097574 250 0 0 4.8328595 -3.3190212 118.7032 0
243.24768 207.58299 1.4127864 250 0 0 4.9951892 -0.68361849 117.19837 0
243.23824 207.68706 1.4342717 250 0 0 4.9726725 -0.3844831 118.16619 0
243.1709 207.80768 1.4240662 250 0 0 5.7327433 -1.9395466 118.57474 0
243.15138 207.88643 1.4347838 250 0 0 5.9521813 -2.7352319 119.62125 0
243.09169 207.99478 1.4401193 250 0 0 4.8780274 -4.4184489 122.73183 0
243.05241 208.02533 1.4423722 250 0 0 5.3697181 -4.0116377 123.5785 0
243.00475 208.1804 1.4508563 250 0 0 4.8255439 -1.2258472 123.99245 0
242.98225 208.25883 1.4534242 250 0 0 4.3702183 -0.61881608 123.7743 0
242.90413 208.38356 1.440464 250 0 0 3.3566566 -1.2664316 122.01947 0
242.87813 208.50005 1.4081337 250 0 0 3.1270983 -2.703532 121.67995 0
242.79926 208.56267 1.4206647 250 0 0 3.8950706 -2.682462 119.36033 0
242.76497 208.60616 1.4332227 250 0 0 3.8772962 -1.0630274 118.57746 0
242.72314 208.76213 1.4408692 250 0 0 4.7274203 0.85999906 117.95336 0
242.70438 208.83757 1.4438455 250 0 0 4.517345 0.52182144 118.30317 0
242.65759 208.98271 1.456199 250 0 0 4.188211 -1.1684988 118.77442 0
242.62721 209.05226 1.4390571 250 0 0 5.0781484 -0.78794593 118.96008 0
242.57385 209.18025 1.462952 250 0 0 5.5367804 0.42875344 120.37119 0
242.54846 209.26105 1.4910433 250 0 0 5.1205745 1.0899947 120.78463 0
242.49136 209.42316 1.5049461 250 0 0 4.3550086 1.0098331 120.74505 0
242.45836 209.50841 1.4950061 250 0 0 3.9188073 0.13754855 120.18878 0
242.38631 209.64339 1.4806015 250 0 0 3.469727 -2.8946133 117.94613 0
242.36771 209.70752 1.4914207 250 0 0 4.6900973 -2.448746 116.89966 0
242.32019 209.8456 1.508094 250 0 0 4.6051736 0.9969573 114.93441 0
242.31129 209.95163 1.4975766 250 0 0 4.6040215 1.2336801 114.19458 0
242.24219 210.12222 1.4787582 250 0 0 4.3648534 -1.7831312 114.90064 0
242.21754 210.20595 1.473455 250 0 0 4.0631161 -3.2316837 115.3097 0
242.17722 210.33299 1.4713188 250 0 0 5.1784158 -2.9528525 116.62864 0
242.1414 210.39621 1.4850359 250 0 0 5.1984067 -1.2229966 117.68357 0
242.05833 210.55263 1.4979501 250 0 0 4.3458104 -0.0054466124 118.27795 0
242.02811 210.64027 1.4986737 250 0 0 3.8570981 0.36633733 118.08199 0
241.95172 210.81679 1.4619198 250 0 0 3.3710287 -2.5156269 117.21907 0
241.87828 210.92725 1.4605285 250 0 0 4.7336664 -3.3111331 116.06534 0
241.85112 210.97986 1.4633381 250 0 0 4.7593422 -2.2096393 115.28814 0
241.77243 211.17331 1.4703734 250 0 0 4.7930284 -0.85865843 115.26707 0
241.73466 211.26134 1.4608885 250 0 0 4.706677 -1.6866755 116.34035 0
241.67178 211.43135 1.4337956 250 0 0 4.1300821 -3.9886692 117.64908 0
241.64359 211.50394 1.4218963 250 0 0 3.6727252 -5.5251284 118.27885 0
241.58873 211.60812 1.4692478 250 0 0 3.7754748 -4.3559074 119.86598 0
241.55095 211.67586 1.4591429 250 0 0 3.5051255 -2.7670689 119.67699 0
241.47765 211.82523 1.4454489 250 0 0 3.3004587 -2.3641694 119.75679 0
241.44261 211.89491 1.4296257 250 0 0 2.7955956 -2.875138 119.28205 0
241.36537 212.02867 1.403151 250 0 0 2.3977869 -4.5010653 117.83939 0
241.33597 212.08646 1.4035604 250 0 0 3.7646604 -4.4486957 117.43825 0
241.2841 212.20099 1.4183357 250 0 0 3.9973264 -2.6835334 116.22772 0
241.24567 212.28165 1.4114498 250 0 0 3.880316 -2.0083051 115.30938 0
241.18826 212.44391 1.3846853 250 0 0 4.7529807 -2.9380331 116.73092 0
241.16074 212.51189 1.3730556 250 0 0 4.7083158 -3.1681149 116.52654 0
241.10057 212.65491 1.356156 250 0 0 4.9810982 -3.4236228 116.54445 0
241.086 212.71892 1.3567706 250 0 0 5.0499964 -3.365062 116.81514 0
241.01578 212.84752 1.372492 250 0 0 4.3566933 -0.79473585 117.26858 0
240.98665 212.90862 1.3692739 250 0 0 4.1260333 -0.54074544 117.7785 0
240.89627 213.05544 1.3519942 250 0 0 3.9428806 -0.67308789 117.42158 0
240.85843 213.11974 1.3438739 250 0 0 4.2419705 -1.5982896 117.98434 0
240.80135 213.2276 1.3397965 250 0 0 4.7011876 -2.433269 118.94634 0
240.7849 213.26747 1.3425802 250 0 0 4.6329198 -1.919607 118.87841 0
240.70636 213.38347 1.3574716 250 0 0 5.0774226 0.93026799 120.04981 0
240.65831 213.44183 1.3587962 250 0 0 5.1316476 0.64839995 122.34908 0
240.58641 213.55772 1.3461964 250 0 0 4.7924256 -0.34557262 126.54708 0
240.55606 213.60817 1.3410083 250 0 0 3.9577913 -1.5211678 128.8898 0
240.52472 213.68617 1.3381792 250 0 0 2.9284377 -2.4391603 133.54305 0
240.51584 213.71735 1.3376895 250 0 0 2.5406733 -0.69991237 135.77931 0
240.43947 213.79489 1.3312275 250 0 0 2.3283687 0.24363458 138.2618 0
240.4082 213.8327 1.3284348 250 0 0 2.0484316 0.42192975 139.81798 0
240.33609 213.9035 1.3191606 250 0 0 1.2211549 0.31025431 142.49226 0
240.27515 213.95805 1.3098662 250 0 0 0.96758074 0.45889884 145.9586 0
240.24199 213.98561 1.3038425 250 0 0 1.2798904 -0.10011473 147.17633 0
240.19719 214.03073 1.309478 250 0 0 1.7343501 1.5723126 150.70911 0
240.16071 214.05547 1.309701 250 0 0 1.7416654 1.6302323 153.05797 0
240.0993 214.09602 1.3083333 250 0 0 2.0282359 1.8782358 160.82968 0
240.06754 214.11353 1.3047575 250 0 0 1.9048531 1.8466111 165.90599 0
240.04173 214.13614 1.2982445 250 0 0 1.6667589 3.0669613 177.2538 0
240.02148 214.14789 1.3011113 250 0 0 1.7718245 2.9892621 -176.56352 0
240.00996 214.15666 1.296855 250 0 0 1.958189 2.8272517 -163.77757 0
239.99631 214.15627 1.2954798 250 0 0 1.874521 3.4288049 -158.90424 0
239.98688 214.13937 1.2978575 250 0 0 2.3005338 3.5507011 -149.58952 0
239.98087 214.12816 1.2976472 250 0 0 2.6149995 3.5529652 -144.89589 0
239.97351 214.09496 1.297238 250 0 0 2.7499595 3.0943916 -136.629 0
239.97278 214.07463 1.2995498 250 0 0 3.0198047 2.9006073 -132.81816 0
239.95212 214.05722 1.2938173 250 0 0 2.9682784 2.4023173 -126.556 0
239.94383 214.03992 1.3021322 250 0 0 3.5857565 2.8359368 -124.27 0
239.9218 214.01419 1.2931324 250 0 0 4.1011496 3.1082177 -120.30434 0
239.91275 213.9975 1.2979885 250 0 0 4.1214347 3.6057751 -118.93352 0
239.87814 213.95366 1.3089169 250 0 0 4.7713242 3.2624123 -115.10239 0
239.85867 213.93568 1.3059767 250 0 0 4.6787062 2.3734405 -113.57734 0
239.81059 213.90167 1.2974635 250 0 0 5.3464689 1.304068 -111.19604 0
239.7914 213.87985 1.2878057 250 0 0 5.5324016 1.7487217 -110.29267 0
239.74966 213.82047 1.2880249 250 0 0 5.0810518 2.107197 -108.93435 0
239.73103 213.78462 1.292398 250 0 0 5.1745677 1.7554888 -108.32804 0
239.68761 213.70984 1.2873415 250 0 0 5.5239959 -0.83388895 -108.21021 0
239.65462 213.6712 1.2829719 250 0 0 5.9736099 -0.50430679 -108.64378 0
239.62273 213.58401 1.2651793 250 0 0 6.8029585 -0.93211257 -110.24201 0
239.58876 213.53755 1.2657087 250 0 0 6.6837678 0.6118713 -110.80526 0
239.55374 213.43307 1.2919055 250 0 0 6.7458372 0.90029097 -111.57947 0
239.52122 213.38391 1.2974509 250 0 0 7.0975404 -0.31345674 -111.25248 0
239.45256 213.29028 1.2731467 250 0 0 7.1515856 -2.2111197 -110.37105 0
239.42062 213.24251 1.277216 250 0 0 7.1427984 -2.1975548 -110.06356 0
239.34781 213.14964 1.2790279 250 0 0 7.2349834 -2.0905437 -108.90285 0
239.27394 213.05284 1.298031 250 0 0 6.6852498 -0.48122841 -108.774 0
239.24536 213.00307 1.3005571 250 0 0 6.50843 -0.69534874 -108.5916 0
239.16595 212.90347 1.2985942 250 0 0 6.0895405 -1.7949963 -108.36252 0
239.12567 212.85342 1.2991549 250 0 0 5.6994677 -2.764581 -108.82582 0
239.05298 212.75165 1.3004148 250 0 0 7.1347008 -2.92454 -109.10121 0
239.05235 212.69234 1.2812959 250 0 0 6.8105578 -3.1861784 -109.09572 0
238.9687 212.59383 1.3090097 250 0 0 7.6556239 -1.1675041 -109.45029 0
238.93617 212.54298 1.3107032 250 0 0 7.909997 -1.8779726 -108.97462 0
238.86543 212.43295 1.3064798 250 0 0 7.3790021 -3.1475275 -108.28305 0
238.83249 212.37958 1.2865187 250 0 0 6.6133571 -3.660656 -107.18297 0
238.75499 212.27797 1.2954613 250 0 0 7.4462295 -2.778621 -105.94531 0
238.72133 212.22508 1.2929574 250 0 0 7.8710403 -1.4464411 -105.14637 0
238.65379 212.11969 1.3057381 250 0 0 7.3463917 -0.85223174 -103.76138 0
238.62584 212.06354 1.3027669 250 0 0 7.3293304 -0.53339505 -103.30051 0
238.55666 211.94649 1.2985648 250 0 0 7.1107421 -0.87600964 -102.55763 0
238.51642 211.88594 1.3046753 250 0 0 6.3799262 -1.6993412 -103.24469 0
238.45958 211.7646 1.3193817 250 0 0 7.8663678 -3.5165007 -104.15386 0
238.4334 211.70978 1.2824022 250 0 0 7.5832992 -2.6286564 -104.05151 0
238.38586 211.57176 1.3296784 250 0 0 7.7936802 -0.14428799 -105.49934 0
238.35275 211.50256 1.3407444 250 0 0 8.0600615 -1.5370305 -104.44356 0
238.2791 211.38692 1.318949 250 0 0 7.769567 -4.0864515 -103.99511 0
238.24088 211.32071 1.3291843 250 0 0 7.7890606 -4.3611765 -103.5323 0
238.17374 211.23596 1.2969724 250 0 0 7.8926859 -3.5865796 -101.30675 0
238.14485 211.15852 1.3277693 250 0 0 7.8423052 -2.22982 -101.29418 0
238.08582 211.03957 1.3293209 250 0 0 7.8539529 -2.7731571 -101.16611 0
238.05803 210.98022 1.3254608 250 0 0 7.7267661 -2.9245572 -101.80911 0
238.00729 210.87775 1.3009119 250 0 0 7.4006457 -4.151197 -102.155 0
237.96921 210.8143 1.3247119 250 0 0 8.3335705 -2.7290387 -102.56552 0
237.92891 210.69896 1.3375115 250 0 0 8.4640322 -2.8483815 -102.38363 0
237.90353 210.63702 1.3531183 250 0 0 8.3305349 -1.9345222 -103.05472 0
237.85931 210.52225 1.3570957 250 0 0 8.0295668 -3.2680514 -102.14102 0
237.82881 210.46902 1.348152 250 0 0 7.9733591 -3.58709 -102.08366 0
237.77081 210.35902 1.3242296 250 0 0 7.393405 -3.4948714 -101.1388 0
237.73784 210.30418 1.3447624 250 0 0 8.8654623 -2.1237988 -101.74462 0
237.69148 210.18089 1.3661253 250 0 0 9.0336742 -2.0625737 -100.54961 0
237.67352 210.11884 1.3766848 250 0 0 8.2660046 -2.4221187 -99.683411 0
237.63551 210.01318 1.3776282 250 0 0 8.3658352 -2.9960759 -98.280724 0
237.61066 209.96233 1.3779767 250 0 0 8.0984735 -3.4872205 -98.184608 0
237.57394 209.85097 1.3872874 250 0 0 8.6204042 -3.4964068 -99.711617 0
237.54483 209.72577 1.4089882 250 0 0 9.6526766 -3.9280202 -100.33986 0
237.52258 209.67787 1.4235786 250 0 0 9.0821037 -3.141027 -100.67464 0
237.50951 209.54756 1.4366089 250 0 0 8.3526707 -3.9843116 -99.778435 0
237.49016 209.48984 1.4311098 250 0 0 8.4333715 -4.5244079 -99.193787 0
237.45158 209.35934 1.4220995 250 0 0 8.4010811 -5.9328589 -98.07074 0
237.42899 209.29836 1.4237564 250 0 0 8.3573847 -6.0593543 -97.183388 0
237.38535 209.17696 1.4400318 250 0 0 9.0107441 -5.70052 -95.961349 0
237.36623 209.11569 1.4464447 250 0 0 8.5656013 -5.6409593 -95.413696 0
237.32657 208.99081 1.4451296 250 0 0 7.9826999 -4.7844601 -95.638519 0
237.3143 208.91064 1.4408349 250 0 0 8.1603174 -4.8151469 -95.880569 0
237.28178 208.78094 1.432287 250 0 0 7.2528915 -6.2437663 -96.645279 0
237.26756 208.70892 1.4325091 250 0 0 8.1797514 -5.7529669 -96.682167 0
237.22603 208.62025 1.4442824 250 0 0 7.8758478 -5.3399653 -96.490822 0
237.21294 208.55249 1.4491805 250 0 0 7.9958782 -3.6245952 -97.920464 0
237.19258 208.39288 1.4506532 250 0 0 8.5837336 -4.5636692 -96.976906 0
237.16849 208.33521 1.4442258 250 0 0 8.2447138 -5.3718224 -97.08371 0
237.11609 208.2149 1.430745 250 0 0 7.8088994 -6.4117379 -96.160912 0
237.09875 208.13841 1.4338042 250 0 0 7.7520223 -6.2320814 -95.380013 0
237.04884 208.02101 1.4428977 250 0 0 7.8974128 -5.2977657 -92.931122 0
237.03491 207.95322 1.449674 250 0 0 6.9733877 -5.2885909 -92.130234 0
236.99179 207.83972 1.4482496 250 0 0 6.2019701 -4.5478168 -92.821175 0
236.97581 207.76607 1.4423921 250 0 0 6.2223473 -4.1137547 -93.830116 0
236.93539 207.62868 1.4271507 250 0 0 6.0285859 -4.6920753 -95.399208 0
236.91223 207.56746 1.427413 250 0 0 6.8544512 -3.3783205 -96.41658 0
236.86951 207.45271 1.4350758 250 0 0 6.7852468 -2.6516745 -96.797485 0
236.84264 207.39348 1.4430642 250 0 0 6.7035069 -1.2964586 -97.789101 0
236.8288 207.26027 1.4479616 250 0 0 7.3971167 -1.1887165 -97.293419 0
236.80913 207.19397 1.4466989 250 0 0 7.1921458 -1.9386027 -97.170479 0
236.76801 207.06248 1.4219394 250 0 0 7.0261579 -3.2765305 -96.276733 0
236.74873 206.99849 1.4327952 250 0 0 7.3676987 -2.5662055 -96.072861 0
236.72386 206.86752 1.4539984 250 0 0 7.3473091 -1.1747184 -93.947937 0
236.70869 206.80013 1.468513 250 0 0 6.7101479 -1.6633743 -92.708305 0
236.67039 206.67203 1.4603143 250 0 0 7.065414 -2.0171542 -92.505333 0
236.64069 206.53589 1.4570637 250 0 0 6.9715934 -3.490521 -93.404518 0
236.64587 206.4765 1.4198645 250 0 0 7.3970075 -2.9579234 -93.633659 0
236.63963 206.35204 1.4493983 250 0 0 7.7124677 -1.6398603 -95.355217 0
236.59265 206.26802 1.4554631 250 0 0 7.7180662 -0.39377797 -95.206451 0
236.60924 206.14459 1.4911935 250 0 0 8.4041986 -1.3040518 -95.978752 0
236.57726 206.06999 1.4941447 250 0 0 8.6394281 -2.5483437 -95.272758 0
236.55785 205.94337 1.4439617 250 0 0 8.3031597 -4.4156032 -94.822937 0
236.52708 205.86176 1.4677472 250 0 0 9.4590578 -3.0853751 -95.354019 0
236.52858 205.75214 1.4698879 250 0 0 9.0594711 -2.8867817 -93.804741 0
236.52544 205.68117 1.4901575 250 0 0 8.5290508 -2.300308 -92.466194 0
236.49608 205.54192 1.4895142 250 0 0 8.6463022 -2.4657495 -91.631218 0
236.48093 205.46544 1.4887444 250 0 0 8.719429 -2.6877263 -91.588829 0
236.48499 205.33054 1.45938 250 0 0 7.2879348 -4.700738 -93.045418 0
236.457 205.25389 1.4676231 250 0 0 8.1630592 -3.2064111 -93.178551 0
236.44589 205.12105 1.4742769 250 0 0 7.3167024 -2.0388284 -94.449188 0
236.4357 205.0504 1.4991986 250 0 0 7.5532894 -0.95687288 -96.010239 0
236.42526 204.90338 1.5060369 250 0 0 8.2153063 -2.2237844 -96.136017 0
236.41228 204.82977 1.5055939 250 0 0 8.4077806 -3.4779153 -96.557121 0
236.38464 204.68861 1.4742887 250 0 0 9.1107779 -3.2322037 -96.210175 0
236.38441 204.62422 1.487188 250 0 0 9.1803989 -3.1859591 -95.693352 0
236.37489 204.48433 1.5093886 250 0 0 8.2215395 -1.9878274 -92.823547 0
236.35741 204.41396 1.5136976 250 0 0 7.8092761 -2.348367 -91.565491 0
236.33209 204.26851 1.5089656 250 0 0 7.2279072 -2.0146582 -91.592979 0
236.328 204.19206 1.5125827 250 0 0 7.0046 -2.9297194 -91.730598 0
236.32283 204.05449 1.4850771 250 0 0 6.8689184 -3.810673 -93.733391 0
236.30803 203.97411 1.5051373 250 0 0 7.471694 -2.742234 -94.691315 0
236.28499 203.82559 1.5144022 250 0 0 7.20189 -0.75646245 -94.663322 0
236.30499 203.67818 1.5361602 250 0 0 7.6077118 -1.255806 -94.08239 0
236.28746 203.59979 1.5300891 250 0 0 7.7908225 -2.4674962 -93.813278 0
236.27368 203.45137 1.485474 250 0 0 7.359026 -3.1082723 -93.983353 0
236.25096 203.36841 1.5278727 250 0 0 8.3408432 -2.6640427 -94.335983 0
236.25116 203.23843 1.5159991 250 0 0 8.2444344 -1.4937967 -92.9552 0
236.24371 203.16379 1.5393804 250 0 0 7.5733542 -1.1942924 -92.088882 0
236.22437 203.00838 1.5509608 250 0 0 6.9964747 -1.5118569 -91.334625 0
236.22548 202.93712 1.5613955 250 0 0 6.7137771 -2.6499546 -91.598099 0
236.22147 202.80675 1.533715 250 0 0 6.6151991 -4.7221112 -93.496712 0
236.21648 202.73958 1.5474813 250 0 0 6.8267345 -4.6549158 -94.438629 0
236.19186 202.59863 1.5430894 250 0 0 6.6876297 -1.5677121 -95.118942 0
236.21919 202.54182 1.5700259 250 0 0 6.8454905 -1.3332765 -95.753525 0
236.2177 202.40472 1.5828184 250 0 0 7.3093219 -3.0271647 -95.04911 0
236.22565 202.35931 1.539952 250 0 0 7.2835426 -3.7927325 -94.673302 0
236.21846 202.22659 1.542956 250 0 0 7.7805614 -1.5825319 -94.424965 0
236.22018 202.15735 1.5484 250 0 0 7.8530817 -0.60413432 -93.446808 0
236.21036 202.00687 1.5782756 250 0 0 6.8338661 -0.65242648 -92.408272 0
236.2132 201.93861 1.5803518 250 0 0 6.8362384 -1.0679449 -92.349503 0
236.19791 201.78683 1.586179 250 0 0 6.3580146 -3.8595259 -94.882195 0
236.18802 201.72786 1.5833235 250 0 0 7.0037184 -5.0359497 -95.187241 0
236.16212 201.58905 1.5767343 250 0 0 6.3700414 -2.4799166 -97.794701 0
236.17557 201.53044 1.601637 250 0 0 7.1167812 -2.3891342 -98.515106 0
236.16772 201.41103 1.5918591 250 0 0 8.2711916 -3.3744919 -97.538368 0
236.15741 201.34032 1.5991162 250 0 0 8.339612 -3.6802256 -96.847481 0
236.1144 201.19131 1.5816565 250 0 0 9.2104158 -2.3549011 -94.814613 0
236.08847 201.11705 1.5985996 250 0 0 9.4985561 -1.9394344 -94.579735 0
236.06996 200.97896 1.6261743 250 0 0 7.5036454 -2.9162755 -93.625481 0
236.0666 200.91455 1.6186002 250 0 0 7.1506257 -3.6401563 -93.34153 0
236.0394 200.76036 1.6008877 250 0 0 6.9943185 -3.9668746 -93.560112 0
236.04602 200.70685 1.5815821 250 0 0 6.8446541 -4.8897958 -93.981026 0
235.99117 200.52238 1.5783216 250 0 0 8.4765158 -2.7948132 -95.381348 0
235.96407 200.43033 1.5698514 250 0 0 8.6597176 -2.2518921 -95.262161 0
235.90244 200.23494 1.5816998 250 0 0 7.9932194 -2.5368428 -95.345062 0
235.85338 200.03752 1.5612993 250 0 0 7.783236 -3.9469278 -93.784966 0
235.82378 199.93242 1.5471616 250 0 0 7.8424144 -5.0338936 -92.970856 0
235.76331 199.7187 1.5083892 250 0 0 9.0944977 -4.8202276 -89.305038 0
235.73734 199.60831 1.5205717 250 0 0 9.1430073 -2.6758528 -87.748528 0
235.70815 199.42912 1.5179198 250 0 0 7.4830775 -2.3798802 -86.160759 0
235.72435 199.38428 1.5184879 250 0 0 7.6136031 -2.0219727 -86.629242 0
235.71101 199.20505 1.4200548 250 0 0 6.9541969 -5.5497956 -88.118752 0
235.71376 199.13496 1.3867546 250 0 0 7.8670621 -5.5077605 -88.792938 0
235.7245 199.02748 1.4105992 250 0 0 7.6333008 -4.9362273 -90.670418 0
235.71667 198.94772 1.425127 250 0 0 8.0741491 -3.6538055 -91.444206 0
235.74312 198.8194 1.4567853 250 0 0 8.6613531 -4.6910977 -90.341362 0
235.74799 198.75954 1.442109 250 0 0 8.574996 -5.3613219 -89.959778 0
235.75053 198.63318 1.4263177 250 0 0 8.7142925 -3.1810732 -87.794106 0
235.80107 198.66508 1.5339683 250 0 0 9.2043762 -3.9651361 -85.537743 0
235.80338 198.50447 1.4572459 250 0 0 7.7847013 -3.3172855 -80.154007 0
235.82181 198.41942 1.493876 250 0 0 6.8520665 -3.1200716 -78.17601 0
235.82761 198.30891 1.4717714 250 0 0 6.2163267 -2.9914966 -75.44915 0
235.85103 198.2469 1.487187 250 0 0 5.9870143 -2.7288346 -75.117699 0
235.91345 198.16125 1.4652779 250 0 0 5.7489738 -4.396812 -73.634659 0
235.92381 198.07991 1.4995714 250 0 0 6.7582793 -3.5663965 -72.72242 0
235.96576 197.98251 1.4933636 250 0 0 6.4125929 -2.9966071 -71.405609 0
235.99883 197.92969 1.5145837 250 0 0 6.6038265 -2.2601464 -71.465225 0
236.04742 197.82761 1.5386736 250 0 0 6.6255789 -2.2762306 -69.828354 0
236.07458 197.77609 1.545705 250 0 0 6.3913717 -3.0222325 -69.166428 0
236.12486 197.66827 1.5253305 250 0 0 6.7826734 -3.5975368 -67.611061 0
236.15044 197.64052 1.5304325 250 0 0 7.3608446 -3.5305955 -66.605125 0
236.21147 197.52759 1.5572147 250 0 0 6.730206 -2.5064158 -64.829132 0
236.22517 197.46066 1.5611057 250 0 0 6.1502485 -2.4621742 -63.979111 0
236.27725 197.34743 1.5692774 250 0 0 5.8914676 -2.5020816 -63.893494 0
236.3024 197.29117 1.579093 250 0 0 5.8422046 -2.9901516 -64.00148 0
236.3716 197.1993 1.5811278 250 0 0 5.9780049 -4.7777362 -65.582901 0
236.39047 197.14479 1.5827626 250 0 0 6.2420554 -5.4488177 -65.853745 0
236.4576 197.05374 1.5986625 250 0 0 5.9363623 -3.5014977 -66.204865 0
236.53853 196.9751 1.6112355 250 0 0 6.646184 -4.4415488 -64.550697 0
236.55943 196.90839 1.6030539 250 0 0 6.7674413 -4.8783455 -64.195335 0
236.63287 196.81416 1.608395 250 0 0 7.2646194 -5.9607797 -62.763435 0
236.65681 196.74725 1.6104386 250 0 0 7.0363808 -6.2172103 -62.026936 0
236.70966 196.65326 1.6375378 250 0 0 7.9820647 -5.3392596 -60.922546 0
236.7337 196.59874 1.6354601 250 0 0 6.967113 -5.7546263 -60.506226 0
236.7758 196.47966 1.62999 250 0 0 6.2950392 -5.4640808 -61.767918 0
236.8018 196.42474 1.6290324 250 0 0 6.3185544 -5.4679694 -62.850327 0
236.87505 196.32855 1.608548 250 0 0 6.0617814 -6.0979686 -63.927765 0
236.89986 196.25781 1.6283962 250 0 0 7.0839801 -4.9835119 -64.528946 0
236.96841 196.1591 1.6326623 250 0 0 6.995347 -4.3164358 -65.416695 0
237.01706 196.11484 1.6782037 250 0 0 7.2102547 -4.011488 -66.122177 0
237.07423 195.99303 1.6718026 250 0 0 7.401989 -5.3419299 -64.918388 0
237.10483 195.95001 1.6760403 250 0 0 7.2250228 -6.0539722 -64.841797 0
237.16005 195.85373 1.657312 250 0 0 6.6023078 -6.3117433 -64.027832 0
237.20694 195.81436 1.6735611 250 0 0 7.6326237 -6.0410881 -63.320534 0
237.23814 195.68039 1.7019809 250 0 0 7.2352142 -4.6016302 -61.408524 0
237.25876 195.62425 1.6847191 250 0 0 6.6065316 -4.4338403 -61.122414 0
237.3071 195.48941 1.6822345 250 0 0 6.1759615 -3.6361833 -62.392712 0
237.35252 195.43217 1.6935779 250 0 0 6.4283361 -4.2234216 -63.217823 0
237.41747 195.32724 1.6714731 250 0 0 6.2196841 -5.1898756 -65.825851 0
237.4355 195.26172 1.683646 250 0 0 6.4305682 -4.8453507 -66.035034 0
237.49113 195.1412 1.6933163 250 0 0 6.157937 -3.0102053 -67.193756 0
237.56137 195.11446 1.7176418 250 0 0 6.4447041 -3.5032556 -67.020943 0
237.58453 194.98639 1.7021595 250 0 0 6.861064 -4.5155482 -65.48642 0
237.60751 194.92503 1.6970416 250 0 0 6.4775763 -4.87502 -65.002159 0
237.66808 194.81419 1.7006947 250 0 0 7.8499045 -4.0069194 -63.742764 0
237.72133 194.67133 1.7408025 250 0 0 7.258903 -2.9711175 -61.589928 0
237.74002 194.61937 1.7241216 250 0 0 6.0999584 -3.5160661 -61.183464 0
237.79482 194.47873 1.7280618 250 0 0 6.1132827 -3.4120922 -62.404694 0
237.82004 194.41096 1.7360646 250 0 0 6.0426712 -4.4846063 -63.215099 0
237.88882 194.31068 1.7082773 250 0 0 6.7518044 -4.0429831 -64.901535 0
237.92343 194.25514 1.7268445 250 0 0 6.4145141 -3.9396191 -65.889717 0
237.98376 194.14241 1.7384036 250 0 0 6.6004181 -1.9517473 -67.017342 0
238.02887 194.1011 1.7503293 250 0 0 7.0063128 -2.1152537 -66.564552 0
238.06738 193.97223 1.7425188 250 0 0 7.593854 -2.7417314 -65.815376 0
238.08727 193.89273 1.7439286 250 0 0 7.2250037 -3.5683212 -65.196831 0
238.14439 193.77892 1.744928 250 0 0 8.0142813 -4.0906277 -64.184196 0
238.16183 193.72673 1.747671 250 0 0 8.2966137 -3.6096804 -63.357651 0
238.21138 193.58623 1.7638419 250 0 0 6.8214169 -2.6117404 -62.661179 0
238.23331 193.51529 1.7621311 250 0 0 6.6190343 -2.3036177 -62.673691 0
238.29486 193.38826 1.7688353 250 0 0 5.7464471 -3.0430994 -63.709011 0
238.29703 193.32098 1.7487206 250 0 0 4.7942948 -3.776289 -64.210022 0
238.37787 193.20848 1.7702105 250 0 0 6.2691569 -3.1487198 -66.093376 0
238.38554 193.16322 1.7580378 250 0 0 6.0773196 -2.4283309 -66.480751 0
238.49785 193.02751 1.81262 250 0 0 6.0262647 -2.6057899 -68.3405 0
238.50587 192.95084 1.7924215 250 0 0 6.2179732 -3.4836245 -67.244461 0
238.54378 192.82457 1.7705513 250 0 0 5.985518 -4.1303353 -66.199081 0
238.57034 192.76611 1.7467393 250 0 0 6.1891484 -3.2745671 -65.986763 0
238.60921 192.62958 1.7689267 250 0 0 7.8078299 -0.39707541 -64.16954 0
238.63139 192.55725 1.8200855 250 0 0 6.9001322 -0.095397033 -63.627991 0
238.66954 192.4395 1.7811527 250 0 0 5.7688107 -0.034298208 -63.43058 0
238.69717 192.36678 1.7892914 250 0 0 5.6194296 0.079944164 -63.78315 0
238.76984 192.24805 1.7640451 250 0 0 4.2713447 -2.050319 -64.302612 0
238.8029 192.19212 1.7555125 250 0 0 5.7469182 -0.91281259 -64.534042 0
238.87506 192.06877 1.7921145 250 0 0 5.6251254 -0.62047684 -64.542068 0
238.90411 191.99538 1.8053224 250 0 0 5.1626916 0.13317367 -64.742249 0
238.99323 191.86162 1.839129 250 0 0 5.1394777 -1.0847293 -63.833469 0
239.01575 191.81282 1.806688 250 0 0 5.1487503 -2.3069308 -63.473923 0
239.0676 191.71072 1.7612768 250 0 0 5.5023246 -1.9542936 -62.815224 0
239.10088 191.64357 1.7804545 250 0 0 6.2564502 -0.61463308 -62.18499 0
239.1515 191.49428 1.8293445 250 0 0 7.658391 0.85659534 -59.485607 0
239.15746 191.43924 1.802071 250 0 0 6.5143495 0.23234046 -59.022709 0
239.20132 191.29288 1.7857821 250 0 0 6.3062248 1.6782691 -60.8512 0
239.24841 191.22406 1.808619 250 0 0 6.1697745 0.73871607 -62.18845 0
239.32472 191.11642 1.7905148 250 0 0 5.4321237 -1.1927129 -64.175392 0
239.34409 191.04315 1.807871 250 0 0 5.6308317 -1.2037861 -64.470772 0
239.39809 190.91495 1.829626 250 0 0 5.8034034 -0.16693275 -65.421196 0
239.45561 190.86136 1.8459569 250 0 0 5.9176602 -0.5885666 -65.595261 0
239.49443 190.73125 1.8262376 250 0 0 5.9025116 -1.8930336 -65.179184 0
239.52438 190.66586 1.8292648 250 0 0 5.8770008 -1.9597976 -64.777008 0
239.57961 190.54869 1.8355794 250 0 0 6.2844629 -2.4023697 -62.707733 0
239.61031 190.51013 1.7911308 250 0 0 6.7191653 -1.9562752 -61.666019 0
239.65167 190.356 1.8348509 250 0 0 6.2487011 0.19822194 -59.785748 0
239.68977 190.20651 1.8340949 250 0 0 4.5614901 0.73064774 -60.708397 0
239.73264 190.13857 1.847636 250 0 0 4.0323749 -0.36049256 -61.677483 0
239.81047 190.03754 1.8242441 250 0 0 3.0587602 -3.2521217 -64.15625 0
239.82408 189.97618 1.8261582 250 0 0 4.0937252 -3.1814334 -64.295052 0
239.8759 189.84076 1.8064888 250 0 0 5.1699595 -0.17341666 -65.601555 0
239.92473 189.7762 1.8357371 250 0 0 5.8220267 0.71551031 -66.510719 0
239.98607 189.61942 1.863414 250 0 0 6.5705495 -1.2291694 -66.113991 0
240.01924 189.5639 1.8557824 250 0 0 6.4004116 -2.7840767 -65.617783 0
240.06604 189.43372 1.833948 250 0 0 5.9418569 -2.2176623 -64.409698 0
240.08849 189.37056 1.8328005 250 0 0 5.7449241 -1.0783458 -63.582108 0
240.13487 189.23575 1.8714155 250 0 0 4.0836148 0.038967513 -63.093529 0
240.16302 189.16801 1.8738476 250 0 0 3.5324736 0.13044035 -63.552101 0
240.2252 189.03709 1.8739284 250 0 0 3.2111166 -1.1753293 -64.59214 0
240.22542 188.97816 1.8747275 250 0 0 2.3075049 -2.2617807 -65.534981 0
240.3009 188.87097 1.8721238 250 0 0 4.2385511 -1.2156341 -68.070915 0
240.33737 188.81169 1.8585255 250 0 0 4.3777523 -0.073455751 -68.558609 0
240.42168 188.67078 1.9029242 250 0 0 4.3683281 1.1856668 -68.996666 0
240.45123 188.59904 1.8977154 250 0 0 4.604907 0.6828354 -68.335747 0
240.51781 188.45473 1.8963821 250 0 0 4.406301 -0.67569911 -66.796951 0
240.55058 188.38953 1.8633088 250 0 0 4.866365 -1.041031 -65.270493 0
240.593 188.26547 1.8952014 250 0 0 6.2725673 1.2364283 -62.887985 0
240.61769 188.19804 1.9178469 250 0 0 5.1214061 1.3210999 -62.125748 0
240.65001 188.08134 1.9068141 250 0 0 3.9536562 1.7278402 -63.135036 0
240.67493 188.01349 1.9228677 250 0 0 3.2879162 1.2983321 -64.077942 0
240.7502 187.90123 1.865855 250 0 0 2.6532345 -0.56467491 -66.846107 0
240.77419 187.82947 1.9106234 250 0 0 4.409482 0.11195135 -67.258362 0
240.82213 187.70984 1.8899084 250 0 0 4.0863624 1.3425224 -69.505241 0
240.91293 187.56927 1.9289092 250 0 0 4.4873042 1.1498227 -70.403267 0
240.93553 187.49986 1.9272187 250 0 0 4.483758 0.11635821 -69.985542 0
240.97954 187.36807 1.8754011 250 0 0 4.1408138 -0.98402244 -69.208153 0
241.00793 187.30008 1.912267 250 0 0 5.3766813 -0.16776669 -69.456673 0
241.03787 187.17906 1.9098608 250 0 0 5.2246814 1.4374968 -67.855324 0
241.06375 187.11755 1.9431133 250 0 0 4.192461 1.9643558 -67.540329 0
241.10765 186.99809 1.9243758 250 0 0 3.6938698 1.6000111 -68.10334 0
241.13641 186.93504 1.9478625 250 0 0 3.5697191 1.2042857 -68.875374 0
241.18295 186.81721 1.9425676 250 0 0 2.0102608 -2.4434686 -70.484879 0
241.20351 186.76616 1.9375612 250 0 0 3.7101648 -2.7000153 -70.874977 0
241.25043 186.65118 1.9331295 250 0 0 4.1086044 -1.5395076 -71.37429 0
241.27988 186.59134 1.9537394 250 0 0 4.3726373 -0.90640336 -71.979324 0
241.33823 186.46776 1.9544188 250 0 0 5.481112 -1.3950448 -70.645752 0
241.36288 186.4052 1.9471203 250 0 0 5.178781 -1.8685843 -70.468193 0
241.41939 186.27608 1.9480684 250 0 0 4.9382353 -3.4656234 -68.718948 0
241.44228 186.214 1.937742 250 0 0 4.8941588 -3.6886668 -67.326378 0
241.49699 186.09367 1.9541202 250 0 0 5.7600894 -1.9886829 -65.963379 0
241.52411 186.03537 1.9591811 250 0 0 4.9705067 -1.6476842 -65.258232 0
241.57249 185.91736 1.9869971 250 0 0 4.1303406 -0.14697127 -66.209259 0
241.59766 185.85756 2.0117979 250 0 0 3.8625426 -0.44027498 -66.74118 0
241.65744 185.76169 1.9631478 250 0 0 4.475256 -0.62941325 -67.264427 0
241.67851 185.69478 2.0181997 250 0 0 4.2807407 0.97664213 -67.546242 0
241.72849 185.59982 2.0134478 250 0 0 4.3399529 1.9254963 -68.286247 0
241.76292 185.55309 2.0436649 250 0 0 3.7036052 2.8543293 -69.472054 0
241.81546 185.45451 2.0277784 250 0 0 4.1776776 2.7444208 -68.227242 0
241.83978 185.40349 2.0373752 250 0 0 3.8790488 2.5695822 -68.017845 0
241.88254 185.30421 2.0180926 250 0 0 4.3708982 0.46344689 -66.246964 0
241.90419 185.25406 2.0314274 250 0 0 4.4868665 0.29648158 -65.278732 0
241.94453 185.16382 2.0303521 250 0 0 4.3598552 2.0024698 -63.682034 0
